3486.00 3444.60 3405.40 3372.20 3349.80 3337.40 3333.40 3328.20 3307.00 3266.40 3235.60 3178.20 3109.40 3070.80 3038.40 3001.40 2862.00 2765.40 2690.40 2655.20 2631.40 2600.80 2564.40 2525.60 2482.00 2468.60 2462.60 2383.80 2286.60 2206.80 2183.40 2130.00 2096.40 1944.40 1518.40 1163.00 926.80 582.60 375.00 318.20 316.20 332.80 347.60 399.00 527.80 669.20 669.20 751.20 1015.20 1307.60 1588.20 1620.00 1662.20 1791.80 1859.40 1910.40 2029.80 2203.80 2410.40 2611.20 2762.80 2892.00 3011.80 3117.60 3212.40 3303.80 3397.40 3488.20 3569.80 3651.40 3730.00 3789.80 3833.00 3840.20 3820.20 3815.80 3834.40 3854.20 3874.60 3893.00 3909.00 3923.40 3935.60 3946.40 3956.40 3965.80 3973.80 3981.00 3988.00 3994.40 3999.20 4005.40 4012.00 4017.40 4022.20 4026.20 4029.40 4032.00 4035.00 4037.20 4040.20 4042.60 4045.20 4048.60 4053.80 4060.00
3479.00 3436.00 3394.80 3358.80 3336.80 3327.00 3327.00 3324.20 3304.40 3257.20 3212.00 3150.80 3061.20 2979.60 2901.20 2858.00 2720.40 2633.20 2584.60 2566.60 2560.00 2543.20 2496.00 2441.40 2408.20 2428.00 2413.40 2278.20 2125.20 1964.00 1936.00 1936.00 1923.20 1545.20 1270.80 1150.00 853.00 515.80 346.60 316.60 316.00 329.80 352.20 423.60 547.20 636.00 636.00 726.40 1028.20 1358.20 1631.00 1696.60 1749.40 1840.60 1875.80 1881.00 2036.40 2236.40 2482.40 2682.40 2832.00 2958.40 3070.80 3166.80 3251.20 3335.00 3420.00 3502.40 3581.60 3661.60 3737.00 3793.20 3824.40 3831.00 3821.00 3819.00 3832.00 3849.60 3866.40 3883.20 3898.00 3912.00 3924.00 3935.40 3946.20 3955.00 3965.20 3972.40 3979.60 3986.00 3992.00 3999.00 4005.00 4010.40 4016.00 4020.00 4024.40 4026.80 4028.60 4030.60 4033.00 4035.20 4036.80 4039.80 4044.20 4049.00
3471.60 3425.20 3377.40 3334.80 3310.20 3309.40 3318.00 3325.00 3316.60 3275.60 3224.40 3173.20 3113.60 3029.60 2898.80 2779.00 2663.80 2574.80 2510.60 2480.00 2483.00 2484.00 2453.20 2394.80 2334.00 2352.20 2330.60 2146.40 2001.20 1948.40 1936.00 1912.60 1778.20 1392.40 1176.00 1041.80 730.20 424.20 311.00 303.00 309.00 343.40 419.80 534.00 603.80 638.20 634.40 727.20 1047.60 1425.60 1752.60 1805.00 1835.20 1886.40 1948.40 2000.20 2095.60 2264.40 2599.00 2785.40 2896.20 3019.00 3125.00 3208.00 3283.20 3357.60 3434.00 3509.00 3585.20 3663.80 3743.40 3801.40 3814.80 3819.20 3814.80 3815.20 3828.00 3845.00 3860.60 3874.60 3889.40 3902.00 3913.40 3924.80 3935.60 3946.40 3955.20 3964.40 3972.00 3979.60 3986.80 3993.00 3999.20 4004.60 4010.20 4014.20 4018.00 4021.60 4023.60 4024.80 4027.00 4029.40 4030.60 4032.20 4035.00 4038.80
3463.60 3416.40 3366.00 3318.60 3298.40 3295.80 3308.20 3315.40 3310.00 3282.80 3238.40 3185.40 3127.60 3047.60 2918.40 2790.60 2648.40 2554.80 2465.60 2410.40 2407.00 2420.40 2408.00 2348.60 2274.20 2274.60 2238.60 2053.00 1977.00 1865.00 1792.80 1659.00 1305.00 1054.00 1000.60 785.80 503.40 316.60 262.60 272.20 287.80 330.60 443.40 581.40 602.60 595.80 599.20 698.80 1041.20 1452.20 1827.40 1880.60 1920.20 1985.20 2099.20 2154.20 2207.60 2327.20 2728.60 2831.40 2948.60 3081.40 3165.80 3239.20 3305.20 3370.40 3438.00 3506.40 3576.20 3654.40 3734.20 3794.40 3801.00 3802.80 3807.20 3806.80 3822.00 3838.00 3852.40 3866.40 3879.80 3892.20 3903.80 3915.60 3926.40 3937.60 3947.20 3956.40 3964.80 3972.80 3980.40 3987.60 3994.40 3999.80 4005.40 4009.40 4013.60 4017.20 4019.00 4019.80 4022.20 4024.60 4025.80 4026.00 4028.20 4032.00
3456.40 3409.80 3362.60 3322.20 3302.60 3297.60 3302.80 3305.40 3299.20 3275.60 3236.60 3187.20 3135.00 3075.80 2972.40 2868.60 2692.80 2577.20 2477.20 2388.40 2344.00 2351.80 2343.80 2292.80 2217.80 2208.60 2181.40 2104.20 1920.60 1695.40 1391.40 1071.60 944.80 861.00 681.40 469.60 246.60 171.20 182.80 235.20 263.80 304.00 386.00 458.00 491.00 457.20 464.80 617.20 1001.40 1408.20 1728.40 1882.80 1978.40 2093.00 2193.80 2274.80 2362.40 2532.40 2726.80 2843.60 2972.00 3149.60 3218.00 3250.20 3317.80 3376.40 3429.80 3488.20 3554.80 3627.40 3700.00 3750.40 3769.20 3788.40 3798.40 3800.80 3814.20 3829.00 3842.80 3856.80 3870.20 3883.20 3894.80 3906.20 3917.80 3929.20 3939.60 3949.20 3957.80 3966.60 3975.60 3982.80 3989.60 3995.60 4001.20 4005.80 4010.40 4013.60 4015.40 4017.40 4019.80 4021.20 4022.20 4023.40 4025.80 4028.40
3447.60 3401.80 3356.20 3317.20 3298.00 3294.00 3295.00 3299.00 3298.00 3275.00 3226.20 3171.40 3116.20 3059.40 2960.80 2851.40 2703.20 2601.60 2500.80 2397.20 2321.20 2294.60 2263.00 2207.20 2130.40 2119.80 2097.40 2014.20 1778.40 1444.00 1142.20 909.20 795.60 624.60 400.20 210.00 73.60 64.00 120.80 202.20 249.80 275.00 316.20 380.40 458.80 430.40 418.00 593.20 1066.20 1435.40 1721.20 1906.20 2046.40 2172.60 2287.00 2387.60 2501.60 2664.00 2842.00 2937.80 3091.20 3209.00 3219.20 3256.20 3331.80 3381.20 3420.80 3468.40 3528.00 3597.20 3668.00 3716.40 3736.00 3759.20 3794.80 3797.20 3806.60 3818.20 3832.20 3846.40 3859.80 3872.80 3886.00 3898.40 3910.20 3921.20 3932.00 3942.40 3952.40 3962.00 3970.00 3978.00 3985.20 3991.60 3997.60 4002.60 4007.20 4010.40 4012.60 4015.00 4017.40 4018.80 4020.60 4022.20 4025.40 4029.60
3439.00 3391.20 3344.00 3299.00 3285.00 3285.00 3278.00 3284.00 3282.20 3247.80 3187.00 3116.00 3064.40 3015.80 2912.60 2791.00 2677.80 2587.40 2498.00 2412.00 2337.00 2267.20 2189.60 2105.00 2031.80 2017.00 1978.40 1754.40 1471.20 1168.00 975.00 833.40 646.20 402.60 184.20 48.00 21.00 50.60 72.80 159.60 239.00 265.80 287.80 382.00 594.80 681.00 1005.40 1192.20 1395.00 1601.00 1802.00 1971.20 2117.60 2250.20 2369.80 2486.00 2620.20 2787.40 2975.80 3039.00 3273.00 3260.40 3225.60 3270.00 3354.40 3386.00 3409.60 3442.00 3493.60 3564.40 3644.00 3699.00 3699.00 3720.00 3756.40 3775.00 3789.60 3805.20 3820.20 3835.40 3850.00 3863.40 3877.40 3890.00 3902.80 3914.00 3925.80 3936.60 3946.80 3956.40 3966.00 3974.20 3981.40 3988.60 3995.00 3999.00 4004.60 4008.20 4010.60 4013.40 4016.00 4017.60 4020.40 4022.80 4026.40 4032.00
3428.20 3380.60 3335.40 3295.00 3278.80 3274.00 3220.40 3186.80 3173.60 3144.40 3095.40 3021.60 2989.40 2976.60 2909.00 2819.80 2670.00 2564.00 2473.40 2386.80 2310.40 2225.00 2115.00 1990.80 1913.60 1900.80 1829.20 1518.80 1196.00 929.80 868.80 733.80 488.60 241.60 73.20 11.80 22.80 181.60 83.40 121.00 236.80 330.20 422.80 511.60 670.80 1338.00 1800.40 1828.80 1759.80 1809.40 1928.40 2063.00 2194.20 2321.40 2441.80 2560.00 2693.40 2839.60 2993.20 3050.20 3262.00 3258.00 3240.40 3299.20 3342.00 3376.80 3401.00 3415.00 3452.80 3523.00 3609.60 3688.20 3688.20 3704.20 3725.40 3745.00 3768.60 3789.40 3807.20 3823.80 3839.40 3854.40 3868.40 3882.20 3895.00 3907.00 3919.80 3930.60 3941.60 3951.60 3961.20 3969.80 3978.00 3985.20 3991.60 3997.80 4002.60 4006.20 4009.00 4012.40 4015.80 4017.60 4020.40 4023.60 4029.40 4035.60
3417.40 3370.20 3322.60 3281.80 3244.20 3209.60 3145.20 3071.20 3042.40 3061.80 3050.20 2973.40 2937.00 2919.00 2866.20 2788.20 2652.60 2547.40 2440.40 2324.40 2224.80 2127.80 2010.60 1889.60 1808.80 1793.20 1593.40 1294.60 980.60 861.60 792.00 597.60 346.80 116.40 29.20 2.20 19.20 45.20 18.20 115.00 292.40 509.20 669.20 819.20 1184.00 1838.40 1884.60 1885.20 1910.20 1956.40 2045.20 2153.20 2273.40 2391.40 2503.00 2616.00 2736.80 2870.00 2990.60 3086.00 3208.00 3248.40 3272.40 3322.80 3365.60 3396.80 3417.40 3428.00 3448.60 3505.80 3546.00 3590.20 3633.00 3669.80 3693.00 3719.40 3749.20 3773.80 3793.60 3812.00 3829.40 3844.60 3859.60 3873.80 3888.20 3901.40 3913.80 3925.00 3936.40 3947.20 3956.80 3966.40 3975.00 3982.80 3990.40 3996.20 4001.40 4005.80 4008.80 4011.60 4015.40 4018.00 4022.00 4025.60 4031.40 4039.60
3407.80 3357.40 3308.20 3256.60 3209.80 3155.60 3089.00 3009.40 2983.00 3027.00 3045.40 2957.00 2890.20 2859.00 2804.60 2728.20 2584.60 2478.60 2372.80 2238.40 2092.20 1962.80 1845.60 1741.20 1711.60 1710.40 1554.20 1155.40 913.40 801.00 643.80 408.80 203.40 51.40 6.20 1.00 6.60 0.20 10.40 141.60 408.80 700.60 870.80 1001.00 1322.60 1707.00 1846.80 1938.40 1991.20 2063.20 2141.80 2235.20 2341.60 2449.20 2552.80 2655.60 2766.80 2878.80 2989.80 3092.60 3180.40 3240.80 3292.40 3344.40 3397.20 3422.00 3445.60 3472.40 3498.20 3513.60 3519.00 3549.20 3602.40 3634.80 3672.80 3705.00 3734.20 3760.00 3781.60 3800.80 3819.20 3835.60 3851.40 3866.60 3881.00 3896.00 3908.60 3920.80 3932.20 3943.40 3953.80 3963.40 3972.60 3981.00 3989.00 3995.00 4000.80 4005.20 4009.20 4012.20 4016.60 4019.80 4023.80 4028.60 4035.00 4043.80
3399.40 3345.80 3292.00 3235.80 3177.00 3116.00 3048.60 2989.40 2962.20 2972.60 2993.80 2944.60 2867.40 2814.20 2747.00 2667.80 2507.40 2391.20 2276.80 2122.00 1957.40 1813.40 1708.80 1605.60 1529.20 1504.40 1291.00 1003.80 854.60 656.40 431.40 224.40 77.20 16.20 4.60 1.00 1.00 1.60 9.60 139.80 443.60 779.40 985.00 1110.60 1352.40 1655.00 1861.40 1978.40 2067.80 2145.60 2219.80 2302.00 2391.60 2490.00 2586.20 2678.80 2778.80 2882.40 2982.20 3075.40 3155.20 3219.20 3282.00 3337.20 3384.00 3419.60 3455.40 3487.20 3509.80 3522.80 3531.00 3557.20 3600.40 3632.00 3662.60 3693.00 3721.60 3747.60 3769.60 3790.40 3809.60 3826.60 3843.60 3859.20 3874.60 3890.00 3904.00 3916.80 3929.00 3940.60 3951.40 3961.80 3971.00 3979.40 3987.80 3995.00 4001.00 4006.40 4010.00 4013.20 4018.60 4022.40 4027.00 4031.80 4039.00 4048.20
3393.00 3335.20 3275.60 3214.40 3151.60 3084.00 3014.20 2948.20 2915.20 2916.00 2911.00 2885.80 2860.60 2791.00 2716.20 2627.00 2462.60 2332.60 2200.00 2040.00 1874.00 1731.40 1628.20 1522.60 1463.40 1369.00 969.20 786.40 616.60 402.20 198.00 79.20 18.00 1.80 1.00 1.00 0.80 -4.40 -0.20 101.40 376.00 727.00 1014.60 1149.60 1356.80 1662.00 1903.80 2031.40 2124.40 2210.00 2276.00 2344.00 2425.60 2516.80 2602.40 2686.00 2776.80 2870.40 2961.00 3047.80 3123.00 3188.80 3252.00 3307.20 3355.20 3397.00 3438.40 3473.20 3498.40 3518.00 3536.00 3562.40 3594.40 3624.40 3653.20 3682.00 3710.20 3735.00 3758.40 3779.60 3800.00 3818.00 3836.00 3852.80 3868.40 3885.00 3899.20 3912.80 3926.00 3938.00 3950.00 3959.80 3970.20 3979.20 3987.60 3996.00 4002.80 4007.60 4011.80 4016.20 4021.00 4025.80 4031.00 4037.00 4043.80 4053.00
3388.40 3325.40 3261.20 3197.00 3129.20 3060.80 2988.20 2913.20 2874.80 2879.20 2858.60 2775.60 2818.40 2734.00 2655.60 2574.80 2403.00 2260.00 2113.20 1963.60 1821.80 1684.80 1563.20 1422.80 1325.20 984.00 744.40 559.20 369.60 197.60 75.20 21.00 1.80 1.00 1.00 2.80 2.20 -11.00 -6.00 82.40 321.60 665.20 985.80 1141.80 1352.00 1666.60 1936.60 2047.40 2141.60 2233.60 2294.00 2354.60 2429.60 2518.40 2596.40 2671.80 2755.60 2841.80 2925.60 3009.20 3079.80 3146.80 3211.20 3268.20 3316.60 3363.60 3409.00 3447.00 3475.20 3501.60 3527.40 3554.60 3583.80 3613.20 3642.00 3669.80 3697.40 3723.80 3747.40 3768.60 3790.40 3810.00 3828.40 3846.00 3863.20 3879.40 3895.00 3910.20 3923.40 3937.40 3949.00 3960.00 3970.80 3979.60 3989.00 3998.40 4004.60 4010.60 4015.60 4020.00 4025.60 4030.60 4036.20 4041.60 4049.60 4058.80
3384.80 3316.60 3247.00 3179.20 3110.80 3042.80 2975.00 2919.40 2885.20 2878.80 2877.00 2779.20 2706.40 2612.20 2543.80 2494.00 2320.20 2158.40 2007.20 1875.20 1741.40 1627.60 1488.40 1326.40 1072.00 760.80 530.20 339.60 180.40 58.40 15.20 1.80 1.00 1.00 1.00 4.40 -0.20 -4.60 -6.40 58.40 230.80 582.60 939.00 1114.80 1316.40 1611.40 1853.80 1994.60 2096.00 2191.20 2260.80 2326.60 2401.80 2484.40 2562.40 2635.80 2714.60 2797.00 2877.20 2956.60 3028.60 3096.00 3161.60 3220.20 3273.00 3323.60 3371.00 3412.60 3448.40 3478.80 3510.20 3540.40 3570.40 3599.60 3628.00 3656.60 3685.00 3711.40 3735.80 3758.00 3781.20 3802.60 3822.40 3840.80 3858.00 3875.80 3891.40 3907.40 3922.60 3936.20 3949.00 3961.40 3972.00 3982.00 3992.20 4001.20 4008.60 4014.60 4020.00 4025.20 4030.00 4035.80 4041.40 4048.00 4055.80 4064.00
3382.40 3308.20 3235.00 3162.80 3092.80 3026.60 2965.60 2917.60 2896.60 2888.60 2869.80 2752.20 2631.40 2555.80 2487.40 2438.80 2228.40 2045.60 1928.00 1811.20 1696.40 1583.20 1433.20 1243.00 981.20 687.00 367.20 170.00 44.40 15.20 6.80 1.00 1.00 1.00 2.20 4.40 4.40 3.20 1.60 44.00 187.60 540.00 917.60 1101.20 1284.80 1543.60 1771.20 1902.40 2015.60 2117.60 2197.20 2270.40 2348.40 2433.00 2509.60 2582.40 2660.60 2740.00 2819.40 2898.40 2969.80 3039.60 3107.60 3169.40 3225.20 3279.20 3331.20 3377.20 3417.40 3453.40 3489.20 3521.80 3554.40 3585.20 3613.60 3643.40 3671.20 3698.80 3724.40 3748.40 3772.80 3795.00 3815.80 3835.60 3854.00 3872.20 3888.60 3905.60 3921.80 3937.00 3950.20 3963.20 3974.80 3985.80 3995.80 4005.40 4013.40 4020.00 4025.40 4031.00 4036.00 4042.20 4048.60 4054.00 4061.60 4070.00
3380.40 3300.60 3219.80 3143.80 3073.60 3009.80 2955.20 2917.40 2902.20 2909.40 2889.00 2810.60 2758.60 2679.00 2563.00 2454.00 2159.40 1956.80 1847.20 1759.60 1661.20 1551.20 1392.20 1191.80 879.40 527.40 200.00 58.20 17.40 3.20 5.20 1.00 1.40 3.00 5.80 7.60 6.40 3.20 2.40 34.40 152.80 467.20 836.80 1043.20 1227.60 1448.00 1632.40 1764.80 1887.60 2008.40 2103.20 2187.40 2272.40 2359.40 2439.00 2512.40 2590.00 2669.80 2749.60 2829.00 2902.60 2975.20 3046.40 3112.20 3172.20 3230.40 3287.20 3339.20 3382.20 3424.60 3464.40 3499.60 3534.80 3567.20 3598.80 3627.80 3658.00 3686.20 3713.80 3739.60 3765.20 3788.20 3810.60 3831.00 3851.00 3869.40 3887.20 3904.80 3921.80 3937.40 3952.60 3965.80 3978.20 3990.60 4001.40 4011.00 4019.20 4026.00 4031.80 4037.20 4042.80 4049.00 4055.00 4060.80 4068.40 4076.80
3377.00 3289.40 3202.60 3122.20 3051.40 2990.00 2938.40 2906.80 2899.00 2931.00 2931.00 2891.20 2832.80 2739.80 2621.80 2475.00 2135.80 1934.20 1819.00 1694.20 1575.00 1460.60 1296.20 1090.40 764.80 331.00 100.00 22.40 5.00 1.40 1.00 2.00 2.80 5.20 6.80 8.00 6.60 3.80 2.00 10.00 81.00 297.60 626.80 929.80 1171.40 1336.00 1447.00 1573.80 1728.00 1870.40 1989.00 2085.20 2176.80 2268.00 2348.40 2425.00 2504.80 2586.40 2667.40 2750.20 2827.00 2902.80 2979.20 3050.00 3114.40 3177.00 3239.00 3295.80 3345.00 3391.40 3435.00 3475.20 3512.80 3548.20 3581.40 3613.00 3645.00 3674.60 3703.40 3731.40 3757.00 3782.00 3805.60 3827.20 3848.40 3868.00 3887.00 3905.00 3923.00 3940.20 3956.00 3970.40 3984.00 3996.00 4008.00 4019.00 4027.20 4034.00 4039.40 4044.20 4050.00 4056.80 4062.00 4068.00 4074.80 4083.00
3371.80 3276.20 3178.40 3090.20 3025.00 2974.20 2916.60 2891.80 2900.20 2944.00 2948.80 2890.00 2805.60 2713.40 2604.00 2452.20 2096.40 1903.40 1761.80 1594.80 1446.40 1289.80 1069.00 842.00 591.80 230.00 52.00 9.60 3.00 2.60 3.60 3.80 4.80 5.60 7.60 7.80 6.20 3.00 1.40 1.00 13.20 219.60 593.00 970.40 1208.60 1211.20 1195.40 1305.40 1546.40 1735.20 1872.00 1967.60 2062.00 2156.20 2239.80 2317.40 2400.60 2484.60 2570.40 2657.20 2739.60 2822.00 2904.00 2980.40 3050.80 3120.20 3188.40 3248.80 3303.40 3354.80 3402.60 3446.60 3488.20 3526.00 3561.60 3596.40 3631.40 3662.80 3693.40 3722.00 3750.00 3776.40 3801.20 3825.00 3846.60 3867.00 3887.60 3907.20 3925.60 3943.00 3959.80 3975.60 3990.00 4003.60 4015.60 4027.60 4036.20 4043.60 4049.40 4053.80 4058.60 4064.20 4069.40 4075.00 4081.80 4089.00
3373.80 3272.20 3156.20 3054.20 2997.20 2979.80 2915.40 2882.60 2895.00 2928.60 2908.00 2846.40 2770.40 2685.60 2580.20 2430.20 2075.60 1888.00 1724.80 1510.40 1334.40 1162.60 912.60 658.80 358.80 113.60 22.80 6.80 4.40 6.00 6.80 6.60 5.60 5.60 6.80 6.60 4.60 2.20 1.00 1.00 2.80 258.00 658.20 1002.60 1128.40 1059.60 997.80 1101.80 1372.00 1598.00 1733.20 1826.20 1923.80 2025.00 2112.00 2193.80 2281.00 2373.00 2463.60 2555.00 2644.80 2733.80 2824.20 2905.20 2984.80 3060.20 3132.80 3202.00 3260.20 3315.80 3369.00 3416.60 3462.60 3502.80 3542.80 3580.40 3617.40 3651.80 3684.40 3714.80 3744.40 3772.00 3797.60 3823.00 3845.80 3867.40 3888.40 3909.20 3928.80 3947.60 3965.40 3982.00 3997.60 4012.00 4026.00 4037.60 4047.20 4054.00 4059.40 4063.80 4068.20 4072.60 4077.00 4081.80 4087.80 4095.00
3388.20 3279.80 3156.60 3033.80 2993.00 2993.00 2938.80 2915.20 2921.40 2894.40 2846.80 2785.80 2720.20 2644.20 2545.80 2396.60 2062.00 1890.00 1733.00 1515.80 1293.60 1077.00 798.60 471.80 154.80 35.00 13.60 6.80 6.80 8.00 8.00 7.80 6.60 6.20 6.80 5.40 2.60 1.00 1.00 -4.20 4.00 243.60 633.00 923.60 976.00 939.60 938.40 993.60 1216.00 1425.80 1556.20 1653.40 1756.40 1866.20 1963.20 2051.60 2148.00 2245.20 2346.00 2445.20 2542.20 2639.00 2737.20 2829.00 2912.80 2996.00 3076.20 3149.80 3213.00 3275.00 3333.60 3385.40 3433.80 3480.60 3521.80 3563.00 3603.00 3641.00 3675.40 3707.80 3739.00 3767.80 3794.60 3821.00 3845.00 3868.60 3891.40 3912.40 3932.80 3952.80 3972.00 3989.60 4006.00 4021.60 4036.20 4049.60 4059.60 4066.00 4070.80 4074.80 4077.80 4080.80 4085.40 4089.00 4094.00 4100.40
3416.60 3307.40 3187.00 3079.00 3028.80 3017.80 2997.00 2994.00 2977.80 2907.40 2822.80 2740.20 2662.20 2589.60 2500.20 2352.20 2029.20 1866.60 1720.80 1508.20 1291.20 1062.60 713.40 329.40 89.40 19.00 11.20 8.20 8.20 8.80 7.20 6.20 6.80 6.80 7.00 5.00 1.80 1.00 1.00 1.00 4.80 164.40 452.20 685.60 756.20 748.00 842.60 934.20 1039.80 1214.20 1338.60 1453.60 1567.00 1681.00 1788.60 1890.80 1996.40 2107.60 2214.80 2326.00 2432.60 2539.20 2643.60 2743.60 2836.60 2928.40 3013.80 3093.00 3165.60 3232.60 3295.60 3352.20 3406.20 3455.40 3502.20 3546.60 3589.20 3628.80 3667.40 3701.80 3733.80 3763.40 3792.60 3819.80 3845.80 3870.60 3894.40 3916.40 3938.00 3959.20 3978.80 3996.80 4015.20 4031.60 4048.40 4062.00 4072.80 4078.40 4082.40 4085.00 4087.40 4089.80 4093.00 4096.60 4100.20 4106.00
3456.00 3346.80 3232.40 3130.40 3082.40 3070.00 3062.60 3033.80 2981.00 2903.40 2825.00 2724.60 2614.20 2538.60 2459.40 2314.00 1996.60 1837.00 1688.20 1474.20 1269.00 1035.40 623.40 224.40 58.40 18.00 11.40 9.00 9.00 9.00 6.00 3.00 3.80 6.20 7.00 6.00 3.60 1.60 1.00 2.60 -11.00 74.00 188.00 333.20 428.80 511.00 748.80 917.60 969.20 1008.40 1114.00 1251.20 1373.60 1483.40 1599.00 1722.00 1840.40 1958.40 2079.60 2200.00 2318.00 2434.20 2547.80 2655.20 2757.20 2856.00 2950.00 3036.80 3114.20 3187.00 3257.00 3319.80 3377.80 3431.80 3481.00 3529.00 3574.40 3617.60 3657.80 3694.20 3729.00 3760.20 3791.00 3819.80 3847.40 3874.00 3897.80 3921.00 3944.40 3966.40 3986.00 4005.40 4025.00 4043.00 4060.20 4076.00 4087.00 4091.80 4094.20 4095.80 4097.00 4098.40 4100.80 4103.20 4108.00 4112.00
3488.60 3384.00 3273.20 3180.00 3146.80 3151.80 3152.00 3078.80 2967.80 2892.20 2848.00 2766.00 2651.60 2567.20 2486.00 2341.80 2010.60 1840.40 1679.60 1450.40 1236.80 1036.40 671.60 246.20 67.00 18.00 12.40 9.60 9.00 8.80 7.20 6.20 6.20 6.20 5.20 5.20 5.60 4.60 2.20 2.80 7.60 9.00 20.60 77.60 162.00 353.80 671.60 884.20 919.60 865.20 964.00 1106.40 1228.40 1322.20 1438.60 1569.80 1691.80 1814.40 1944.60 2073.40 2201.80 2326.80 2450.00 2565.20 2674.20 2781.40 2884.20 2978.80 3063.20 3142.40 3218.20 3285.60 3348.80 3407.60 3460.80 3511.00 3560.20 3606.20 3647.40 3686.20 3723.40 3758.00 3790.20 3821.20 3849.60 3877.60 3902.40 3927.40 3950.60 3973.40 3994.40 4014.40 4033.60 4052.80 4070.60 4088.00 4099.80 4102.60 4103.20 4104.60 4104.20 4105.20 4107.40 4109.80 4114.00 4118.00
3495.40 3403.60 3323.20 3252.40 3252.80 3286.60 3261.40 3174.40 3051.40 2966.60 2903.60 2822.60 2720.20 2632.00 2528.80 2389.00 2065.40 1880.80 1706.80 1481.60 1265.20 1095.00 729.60 253.80 69.00 18.00 12.20 9.60 9.40 8.60 7.60 5.80 5.80 4.80 2.40 2.40 5.80 6.60 3.60 1.20 1.60 1.00 -10.00 -3.60 52.40 213.40 504.60 749.00 924.40 709.80 956.00 1064.40 1148.40 1236.00 1333.80 1450.20 1565.00 1684.60 1816.60 1951.80 2086.60 2219.60 2349.00 2474.20 2591.00 2704.60 2815.40 2917.80 3007.20 3094.20 3177.00 3251.00 3318.40 3381.20 3438.80 3493.00 3545.40 3594.60 3638.60 3680.20 3719.80 3755.80 3790.20 3822.80 3853.20 3881.60 3908.60 3933.40 3957.40 3980.60 4002.40 4022.40 4040.80 4060.00 4078.00 4094.00 4106.00 4108.60 4109.20 4110.40 4110.60 4110.80 4112.40 4115.40 4119.00 4123.60
3493.00 3411.20 3338.80 3296.20 3301.60 3350.20 3322.00 3234.40 3139.60 3056.40 2973.20 2870.60 2759.00 2660.20 2544.60 2389.00 2043.20 1859.20 1723.60 1508.40 1290.40 1009.20 561.60 258.60 70.60 18.00 12.80 10.60 10.60 9.20 8.20 6.20 6.60 5.80 5.40 4.80 5.60 6.60 3.60 1.20 1.00 1.00 1.00 -10.00 9.20 100.60 362.00 681.40 946.20 179.40 1041.20 1086.40 1143.60 1185.00 1259.40 1355.40 1452.80 1566.40 1694.20 1831.80 1972.00 2111.00 2247.20 2381.00 2504.80 2624.80 2743.60 2851.20 2952.60 3044.20 3133.80 3213.40 3285.80 3353.80 3415.40 3474.40 3530.20 3582.80 3630.60 3674.20 3716.20 3754.60 3791.20 3826.00 3857.20 3887.00 3915.20 3940.00 3964.60 3987.80 4010.20 4029.20 4048.00 4066.20 4082.20 4097.00 4107.40 4109.80 4112.20 4113.40 4113.60 4114.60 4116.60 4119.60 4123.20 4127.80
3493.40 3395.00 3336.40 3290.20 3289.40 3333.80 3322.80 3270.00 3181.60 3105.60 3016.00 2904.00 2778.00 2655.60 2523.20 2349.80 1974.40 1789.00 1649.60 1494.40 1308.40 825.20 470.00 194.60 62.60 17.20 14.60 13.00 12.20 10.20 10.60 11.00 9.00 8.00 7.20 7.60 7.40 7.00 4.20 1.40 1.00 1.80 1.80 -1.20 -0.40 88.20 348.20 676.60 957.40 1149.40 1160.40 1147.60 1155.00 1173.80 1216.00 1276.60 1354.00 1450.00 1576.20 1714.00 1858.00 2003.20 2145.60 2283.60 2414.20 2543.60 2669.00 2784.40 2891.00 2993.00 3087.80 3172.60 3253.00 3325.40 3391.00 3453.60 3514.00 3571.00 3621.80 3669.00 3713.40 3754.60 3793.20 3828.80 3862.00 3893.00 3922.00 3947.20 3971.80 3995.00 4017.80 4035.60 4053.00 4068.60 4083.60 4096.20 4105.00 4109.40 4111.80 4113.80 4115.60 4117.00 4119.40 4122.40 4126.00 4131.40
3472.00 3343.00 3325.80 3278.40 3264.00 3309.00 3343.60 3289.20 3195.00 3097.00 2988.00 2883.20 2776.40 2661.80 2511.40 2315.00 1934.80 1722.80 1561.40 1422.60 1285.00 741.80 403.00 160.60 49.80 19.00 16.80 15.60 13.80 10.60 9.00 10.00 10.00 9.40 9.00 9.00 9.00 8.60 7.40 6.20 4.00 2.00 1.60 1.00 1.00 70.00 254.20 537.40 832.00 1066.80 1210.00 1184.00 1157.60 1151.00 1168.20 1202.00 1255.00 1339.00 1458.40 1597.20 1745.00 1894.80 2042.40 2185.80 2324.20 2460.00 2591.00 2713.80 2827.20 2935.20 3037.00 3129.60 3215.20 3292.60 3364.20 3433.00 3498.40 3558.80 3612.80 3662.80 3711.00 3754.80 3794.80 3832.00 3867.20 3899.00 3928.60 3955.00 3979.60 4002.40 4023.00 4041.80 4057.80 4071.60 4084.00 4094.00 4101.00 4106.20 4109.80 4113.40 4116.00 4118.40 4121.60 4125.20 4128.40 4134.00
3433.60 3343.40 3319.40 3285.60 3285.00 3321.00 3343.60 3288.00 3177.20 3053.80 2900.20 2787.40 2731.80 2658.80 2514.20 2318.40 1964.80 1755.20 1592.20 1465.80 1303.80 764.40 432.80 169.20 52.00 22.20 19.00 17.60 15.80 12.20 10.80 10.60 11.00 11.40 10.60 10.20 9.20 9.00 9.00 8.40 7.20 3.80 1.60 1.00 1.00 12.20 117.20 371.60 674.00 948.20 1101.00 1141.40 1123.80 1110.60 1117.80 1130.40 1151.40 1221.00 1340.60 1482.00 1634.20 1789.00 1940.40 2089.60 2233.60 2375.80 2512.40 2642.20 2761.00 2876.20 2985.40 3084.40 3174.80 3259.20 3336.60 3410.00 3480.80 3546.20 3604.40 3658.80 3709.00 3755.40 3798.20 3837.60 3873.20 3906.40 3936.80 3963.60 3987.60 4009.80 4030.20 4046.60 4061.00 4073.40 4081.80 4088.80 4095.60 4101.20 4106.80 4111.20 4114.80 4118.40 4122.20 4126.60 4130.60 4135.20
3404.00 3334.60 3295.80 3277.60 3300.60 3319.80 3317.60 3266.40 3156.00 3054.80 2912.20 2797.80 2725.40 2659.60 2526.40 2350.00 2021.40 1816.40 1641.40 1510.20 1184.60 849.20 536.40 252.00 78.40 22.20 19.40 18.40 17.80 15.40 14.80 14.60 15.40 13.80 12.40 11.00 10.20 9.00 9.00 9.00 8.00 6.20 3.00 1.40 1.00 1.00 26.00 223.60 444.80 719.20 904.60 1028.20 1079.40 1080.00 1087.40 1075.60 1069.80 1111.00 1233.40 1375.60 1530.60 1688.00 1843.20 1994.40 2144.00 2290.60 2433.20 2568.00 2694.40 2814.80 2931.40 3034.80 3135.20 3224.40 3304.80 3385.20 3461.80 3534.20 3594.80 3653.20 3708.20 3756.40 3801.20 3842.00 3880.00 3914.80 3945.60 3970.80 3994.80 4017.40 4036.60 4051.40 4062.20 4073.00 4075.80 4080.00 4087.60 4095.20 4102.00 4108.40 4113.20 4116.80 4121.60 4127.00 4131.40 4135.60
3388.40 3315.40 3304.60 3283.80 3284.40 3315.60 3301.00 3241.80 3159.00 3077.20 2977.60 2871.00 2769.80 2674.60 2545.40 2383.00 2040.60 1836.20 1671.80 1555.80 1196.00 938.20 642.60 328.20 95.80 19.20 16.40 16.00 16.60 13.40 13.60 15.20 16.40 17.00 13.00 11.60 12.00 10.80 9.00 9.00 8.60 7.40 4.00 1.40 1.00 1.00 14.00 48.80 206.40 430.60 705.40 953.00 1068.60 1095.80 1091.60 1052.20 1011.80 1037.80 1148.80 1286.80 1439.40 1595.40 1749.40 1902.20 2055.20 2204.80 2352.60 2492.20 2621.40 2748.60 2871.40 2981.80 3088.00 3183.00 3272.40 3357.00 3441.20 3516.80 3585.80 3647.00 3705.80 3757.40 3804.40 3846.80 3885.80 3922.60 3953.40 3978.60 4001.80 4022.80 4041.40 4053.80 4062.20 4065.20 4062.60 4063.80 4075.40 4087.00 4095.80 4104.20 4110.20 4114.80 4120.20 4125.80 4130.20 4133.80
3405.20 3360.60 3346.20 3317.80 3306.00 3325.20 3307.80 3243.80 3161.00 3083.80 2997.20 2897.40 2790.00 2683.20 2550.20 2375.00 2026.60 1834.80 1704.60 1596.80 1238.80 977.40 695.00 379.00 101.40 15.60 13.80 13.00 14.80 12.40 12.00 13.60 16.80 18.00 17.00 15.20 15.00 12.60 10.20 9.00 9.00 8.60 6.20 2.60 1.20 1.00 -1.20 3.40 89.20 379.60 701.80 938.60 1107.80 1194.20 1149.20 1058.60 398.20 1009.40 1104.00 1221.60 1364.60 1514.40 1663.80 1814.40 1967.80 2119.20 2268.60 2411.20 2547.40 2678.80 2807.00 2924.20 3035.60 3137.80 3233.80 3325.40 3415.20 3500.00 3572.20 3640.60 3703.40 3757.60 3806.20 3850.60 3890.80 3928.20 3960.40 3985.60 4007.40 4027.80 4045.40 4054.60 4059.00 4055.40 4044.00 4041.00 4060.60 4077.20 4089.80 4099.40 4105.80 4110.60 4116.20 4122.60 4127.00 4130.60
3433.00 3423.60 3372.40 3347.80 3354.60 3367.00 3343.20 3264.00 3179.40 3106.20 3021.00 2918.40 2801.60 2681.60 2524.00 2316.00 2000.00 1825.20 1688.40 1574.40 1228.00 973.40 688.20 371.40 104.60 20.00 17.20 14.80 17.20 18.00 16.00 17.40 19.00 19.60 20.00 17.00 16.20 16.20 12.60 9.40 9.00 8.80 7.60 5.80 2.60 1.00 1.00 5.40 111.00 453.00 827.00 1036.20 1179.80 1232.00 1150.40 1051.00 195.20 1006.40 1077.80 1179.00 1304.00 1441.40 1583.40 1730.40 1880.80 2032.00 2182.80 2328.80 2467.40 2603.40 2738.00 2860.80 2978.40 3088.20 3189.40 3289.00 3387.80 3478.60 3558.40 3631.20 3699.00 3755.60 3806.80 3853.60 3894.40 3933.00 3965.20 3989.60 4011.20 4030.80 4049.00 4055.60 4057.60 4052.80 4039.60 4037.00 4056.00 4072.40 4084.40 4093.60 4099.00 4105.00 4111.00 4117.00 4121.40 4126.00
3410.60 3404.20 3369.60 3364.20 3390.40 3388.00 3353.00 3271.40 3183.80 3119.40 3039.20 2921.60 2782.00 2647.00 2479.20 2266.80 1922.60 1759.40 1641.80 1535.80 1170.00 914.80 621.00 315.00 88.60 20.00 16.60 16.20 18.60 19.80 19.20 19.00 19.80 20.00 20.00 18.20 17.40 18.40 14.80 11.40 9.60 9.00 8.60 7.20 4.80 3.20 1.00 6.60 93.80 374.20 679.20 879.60 1000.60 1013.20 997.80 0.00 196.00 1003.20 1059.00 1143.00 1247.80 1372.00 1505.80 1648.00 1794.80 1945.20 2094.00 2240.20 2382.20 2522.80 2660.60 2790.00 2914.20 3029.40 3137.20 3245.00 3353.80 3454.00 3540.40 3620.00 3690.20 3749.00 3804.20 3851.80 3894.80 3934.80 3967.40 3991.00 4012.00 4032.60 4050.00 4056.80 4058.40 4055.40 4049.80 4048.60 4059.40 4068.80 4077.60 4085.60 4091.40 4096.20 4102.20 4108.20 4112.80 4117.60
3387.00 3384.60 3369.60 3372.60 3418.20 3414.80 3365.40 3278.60 3192.60 3140.60 3062.00 2938.80 2778.80 2623.20 2441.80 2231.20 1880.20 1713.80 1599.80 1502.80 1139.20 888.60 586.40 283.80 77.60 20.40 16.60 15.00 17.40 19.80 19.60 19.00 18.20 18.80 18.40 18.60 18.20 18.60 16.80 14.40 12.40 9.80 9.00 8.00 6.80 4.40 1.20 3.00 52.60 129.40 324.40 542.00 681.20 840.60 879.80 -0.40 195.60 998.00 1043.40 1103.80 1195.40 1309.20 1430.40 1566.60 1708.60 1856.00 2003.80 2149.40 2292.20 2435.80 2577.40 2710.80 2841.20 2965.60 3080.80 3194.60 3310.20 3419.40 3522.20 3603.80 3676.20 3738.60 3796.40 3846.20 3892.00 3932.80 3966.40 3988.80 4009.20 4030.40 4048.40 4056.20 4058.20 4057.00 4055.00 4055.40 4059.60 4063.60 4070.80 4076.80 4081.00 4085.00 4090.60 4097.20 4102.40 4108.40
3380.40 3371.60 3356.40 3359.40 3408.60 3408.80 3360.00 3287.60 3209.00 3148.60 3063.20 2936.60 2774.60 2620.40 2456.80 2258.20 1916.20 1749.00 1641.20 1540.80 1154.80 925.20 641.60 324.80 93.20 20.40 15.80 14.40 17.40 19.80 19.00 17.00 17.00 17.20 15.60 19.20 17.60 17.60 16.20 11.40 10.00 10.40 9.60 8.40 7.20 5.00 1.80 1.00 3.80 15.00 92.80 234.20 449.80 746.20 851.00 -1.00 193.80 390.00 630.20 1077.40 1149.80 1247.00 1361.40 1485.00 1623.80 1766.60 1910.00 2054.00 2198.00 2344.00 2488.00 2627.00 2763.00 2892.60 3014.60 3136.40 3259.00 3376.80 3484.00 3573.60 3652.80 3720.00 3781.40 3838.40 3886.00 3928.60 3962.00 3984.00 4000.20 4022.60 4043.60 4052.20 4054.60 4055.20 4054.00 4053.60 4055.40 4057.00 4059.40 4064.40 4067.20 4071.40 4076.20 4083.40 4089.80 4095.80
3388.40 3377.20 3348.00 3337.80 3372.00 3384.40 3346.80 3281.40 3195.00 3121.40 3038.00 2920.20 2777.80 2635.60 2485.00 2292.60 1970.60 1798.60 1679.20 1583.60 1184.00 964.00 705.40 394.60 108.80 21.60 18.00 14.40 17.40 19.80 19.80 17.40 16.60 17.80 16.80 17.60 18.60 18.60 16.20 10.20 8.00 10.00 9.60 8.40 8.00 5.00 1.80 1.00 -3.80 -0.60 18.00 106.60 358.60 660.60 840.60 699.80 -7.00 -16.80 185.40 191.40 1109.40 1190.60 1286.60 1405.80 1540.20 1678.60 1818.00 1957.60 2101.60 2247.80 2395.60 2537.40 2679.80 2814.20 2943.40 3072.00 3200.40 3323.40 3432.60 3534.00 3623.20 3697.00 3766.20 3826.00 3876.80 3923.00 3958.40 3972.80 3983.60 4008.40 4038.00 4045.60 4048.20 4049.20 4047.20 4045.60 4044.80 4044.20 4045.80 4049.00 4050.00 4053.80 4058.60 4066.60 4073.80 4080.60
3395.00 3396.60 3360.20 3315.80 3329.00 3399.00 3350.40 3276.80 3182.00 3100.40 3011.00 2908.00 2786.80 2663.20 2518.80 2331.00 2027.00 1831.00 1695.40 1593.80 1207.00 988.20 737.00 422.00 141.60 28.00 19.00 14.60 16.40 19.60 20.00 16.40 14.00 14.00 14.00 16.00 19.00 18.20 14.00 9.60 11.00 10.80 9.60 8.40 8.00 6.00 2.60 1.00 1.00 -7.80 1.00 59.60 220.40 478.40 697.60 831.00 -9.00 -25.00 -47.80 -53.40 1092.00 1142.60 1225.40 1335.20 1463.20 1595.00 1726.00 1860.80 2002.40 2147.60 2296.00 2442.40 2588.00 2727.80 2861.80 2998.00 3133.80 3260.60 3375.20 3482.40 3583.00 3666.80 3741.60 3806.40 3862.00 3912.00 3947.00 3959.00 3959.00 3987.00 4022.00 4032.40 4034.40 4035.00 4031.80 4029.00 4027.20 4024.00 4024.00 4027.20 4028.00 4030.00 4036.40 4044.80 4052.80 4061.00
3382.80 3399.60 3384.00 3340.20 3375.60 3403.60 3353.00 3277.00 3182.20 3094.60 2999.40 2895.00 2778.00 2658.40 2517.60 2344.40 2044.60 1834.60 1694.20 1588.80 1222.00 996.00 767.40 445.20 183.20 53.60 19.20 14.00 13.00 16.40 17.80 12.60 11.20 11.20 11.80 13.80 16.60 16.60 14.80 13.80 14.40 14.00 11.40 9.00 8.00 6.20 4.80 2.40 1.20 1.80 8.80 12.40 73.80 208.40 407.80 685.60 927.20 1093.20 1147.40 1093.80 -30.00 1092.80 1169.40 1274.80 1397.60 1519.20 1640.20 1765.80 1900.40 2042.80 2189.40 2338.00 2486.80 2632.60 2773.00 2915.00 3057.40 3189.80 3310.40 3427.00 3536.80 3627.20 3709.80 3781.00 3839.40 3894.00 3933.60 3948.40 3956.80 3980.80 4007.00 4013.00 4013.00 4011.60 4007.00 4003.60 3999.80 3995.60 3995.00 3996.60 3998.00 4001.20 4007.20 4017.00 4026.80 4037.40
3366.80 3381.80 3369.00 3354.80 3401.60 3408.80 3362.60 3284.40 3185.40 3099.60 3000.60 2880.00 2749.60 2622.40 2470.00 2294.00 1994.20 1814.20 1686.20 1588.80 1253.20 1064.40 872.20 572.40 228.80 77.20 19.20 14.00 11.60 15.60 15.40 12.40 12.40 12.40 12.20 13.80 15.00 15.40 16.20 15.80 16.00 16.00 13.20 10.60 8.80 7.40 5.20 3.60 1.40 1.80 2.80 2.60 3.40 62.00 199.60 484.80 774.40 979.60 1025.80 990.20 -35.20 634.40 1124.40 1228.40 1340.80 1451.60 1557.00 1671.80 1797.60 1933.40 2076.20 2226.40 2380.00 2528.60 2674.40 2822.60 2971.60 3110.20 3239.60 3362.80 3480.40 3580.20 3671.00 3745.40 3809.40 3866.80 3910.00 3928.40 3943.60 3962.60 3982.20 3985.00 3982.60 3979.80 3974.60 3969.20 3964.80 3960.20 3958.00 3959.00 3960.00 3963.80 3972.00 3983.60 3995.20 4008.60
3372.20 3380.60 3369.40 3328.40 3347.00 3384.20 3357.80 3289.80 3193.20 3101.40 2993.40 2859.00 2706.00 2566.00 2406.00 2211.80 1907.00 1751.80 1657.80 1590.00 1324.00 1161.60 974.60 696.20 309.00 100.60 21.40 12.20 12.20 15.40 14.80 12.80 12.40 13.00 13.40 15.00 15.60 15.00 14.80 14.00 14.80 16.60 15.80 13.00 10.60 8.60 6.60 5.40 2.80 1.60 1.00 -1.00 -8.40 7.60 78.80 249.00 526.60 767.80 814.00 824.40 519.80 596.80 1098.00 1200.40 1300.00 1395.20 1484.40 1572.80 1686.00 1817.00 1959.20 2110.80 2264.80 2417.20 2570.00 2722.40 2875.60 3023.40 3158.80 3288.40 3414.40 3522.20 3618.20 3701.60 3767.40 3827.80 3873.40 3895.40 3914.00 3932.00 3948.60 3949.60 3944.60 3940.40 3933.20 3926.60 3921.00 3914.60 3912.20 3912.80 3914.40 3920.00 3930.20 3943.60 3957.60 3975.00
3406.20 3367.00 3369.40 3440.20 3433.20 3401.80 3355.20 3283.80 3182.40 3085.20 2965.80 2814.80 2644.40 2491.60 2304.40 2077.00 1803.00 1694.40 1621.20 1560.60 1344.00 1126.60 893.00 591.20 267.40 94.20 17.40 12.80 12.20 15.40 16.80 13.40 11.80 11.80 13.00 15.00 16.80 16.00 14.00 12.40 13.20 15.80 16.60 14.60 12.20 9.80 7.80 6.20 3.20 1.20 1.00 1.00 -0.80 2.40 12.00 92.60 261.40 429.40 500.20 631.20 862.20 1011.20 1096.00 1178.00 1264.40 1348.40 1417.60 1477.60 1568.80 1694.80 1836.80 1990.40 2146.40 2302.00 2459.20 2615.20 2773.20 2925.00 3067.60 3208.40 3340.40 3457.20 3559.80 3646.80 3715.80 3775.40 3824.20 3851.00 3872.00 3891.00 3906.20 3905.00 3899.00 3892.40 3884.00 3875.80 3867.80 3860.60 3857.20 3858.00 3861.20 3868.80 3880.40 3896.80 3914.80 3935.00
3473.00 3353.00 3357.40 3392.20 3399.00 3372.00 3340.20 3263.00 3158.00 3056.40 2928.00 2769.80 2601.40 2450.20 2274.60 2049.00 1781.40 1672.60 1600.00 1550.00 1357.00 1055.00 813.00 495.60 218.80 82.00 18.20 14.20 13.00 13.80 15.00 15.20 11.60 11.60 12.80 15.00 17.00 16.60 14.80 14.00 16.00 15.60 17.20 14.20 11.40 10.00 8.80 7.60 5.20 2.40 1.00 1.00 1.00 1.00 5.00 11.00 36.20 89.40 184.80 408.80 769.00 960.40 1058.40 1125.60 1206.00 1303.00 1349.60 1364.00 1437.20 1566.00 1712.00 1867.40 2025.80 2183.60 2342.40 2503.00 2665.00 2823.00 2972.40 3120.40 3264.00 3388.20 3499.40 3588.80 3654.00 3709.00 3766.20 3791.00 3815.00 3839.00 3859.00 3853.60 3845.20 3836.80 3827.60 3817.00 3808.40 3799.20 3794.40 3795.60 3801.00 3810.40 3826.00 3844.60 3866.20 3890.00
3566.20 3339.00 3299.80 3284.80 3319.00 3293.00 3292.20 3238.40 3140.00 3029.80 2899.20 2746.40 2586.20 2444.00 2286.00 2098.40 1803.40 1676.80 1605.40 1547.40 1212.40 1014.40 777.60 450.60 191.60 -1.60 30.80 16.40 14.00 13.20 12.80 12.80 12.00 12.60 13.00 13.80 15.60 15.40 16.00 16.00 16.80 17.00 17.00 15.00 14.00 11.20 9.20 8.60 6.80 4.80 1.20 1.00 1.00 1.00 1.00 1.00 1.80 10.80 67.80 217.60 526.00 717.60 789.80 848.60 987.80 1177.20 1299.20 1270.80 1330.00 1453.60 1596.60 1749.60 1905.60 2062.00 2221.20 2383.20 2547.20 2708.40 2865.00 3020.40 3171.60 3305.60 3424.40 3522.80 3588.00 3635.00 3679.80 3708.20 3743.20 3772.00 3792.80 3787.20 3778.20 3769.20 3759.20 3747.40 3736.40 3725.60 3720.20 3721.80 3729.20 3744.40 3762.80 3785.60 3808.60 3835.20
3520.20 3343.40 3200.60 3192.60 3264.20 3276.20 3290.40 3249.20 3136.60 3019.40 2887.60 2738.40 2583.20 2448.40 2302.80 2122.40 1819.00 1683.00 1605.60 1544.80 1235.60 982.40 755.60 428.60 178.00 -5.20 2.80 16.80 14.40 13.20 12.00 12.00 12.00 12.60 12.80 13.00 14.80 15.40 16.00 16.40 16.40 17.40 16.60 15.40 14.60 12.00 10.20 10.00 9.20 7.40 3.60 1.20 1.00 1.00 -0.40 1.00 -0.80 -2.80 11.80 69.40 219.20 360.80 415.00 470.20 654.60 936.00 1157.20 1274.40 1300.40 1373.60 1498.60 1642.80 1786.80 1938.00 2095.20 2256.80 2421.40 2586.80 2745.80 2908.00 3068.00 3208.40 3340.80 3446.40 3536.00 3614.60 3635.00 3633.00 3666.40 3694.40 3711.60 3706.00 3697.60 3689.80 3680.60 3668.20 3654.60 3641.00 3635.40 3638.60 3649.60 3670.60 3694.80 3721.60 3744.40 3766.80
3454.80 3331.00 3255.00 3264.20 3303.20 3318.20 3325.20 3267.40 3149.80 3027.80 2895.40 2749.20 2598.40 2468.40 2317.80 2126.60 1821.80 1681.80 1605.00 1570.00 1336.40 983.80 765.80 451.40 189.80 -4.00 2.60 17.40 14.40 13.60 12.60 12.00 12.80 12.80 12.20 12.40 13.60 15.80 17.20 17.60 17.60 17.80 16.00 16.20 15.80 13.20 12.00 10.80 10.60 10.40 7.80 3.60 1.60 1.00 -0.40 1.00 -0.80 -2.60 2.20 8.20 43.40 96.80 112.20 172.20 371.40 678.60 1015.80 1217.80 1289.20 1325.20 1417.60 1544.40 1674.00 1814.40 1967.20 2125.40 2288.20 2453.00 2618.60 2783.80 2949.80 3098.40 3235.20 3350.40 3443.20 3528.20 3582.20 3583.80 3586.40 3597.20 3610.80 3608.60 3602.20 3599.20 3592.00 3581.20 3564.60 3546.00 3540.60 3544.20 3562.60 3590.20 3628.80 3658.80 3682.80 3696.00
3430.80 3360.60 3315.20 3353.00 3384.20 3382.20 3362.20 3286.60 3166.60 3047.80 2921.00 2781.60 2639.20 2502.80 2337.60 2130.20 1837.40 1699.00 1621.60 1562.80 1326.00 990.60 781.40 479.40 209.20 79.60 34.00 17.00 14.60 14.60 14.60 12.60 12.20 11.60 12.00 12.80 13.40 16.40 16.40 16.40 18.00 18.00 17.60 17.60 17.00 15.60 15.20 14.00 13.40 14.00 12.20 8.40 5.00 2.20 1.20 1.00 1.00 1.00 1.00 1.00 2.60 7.80 10.60 52.60 171.00 399.40 747.80 1039.40 1194.20 1268.80 1355.20 1464.40 1571.20 1694.80 1834.00 1988.20 2148.20 2312.00 2479.40 2648.60 2817.80 2973.40 3115.80 3231.20 3320.00 3397.40 3449.40 3461.00 3469.20 3481.20 3494.40 3497.60 3497.20 3498.80 3498.60 3494.40 3474.40 3451.40 3443.00 3444.00 3476.20 3520.20 3571.00 3610.60 3645.40 3664.40
3411.00 3348.00 3318.40 3370.60 3416.60 3403.00 3361.00 3279.40 3160.00 3053.20 2947.00 2824.80 2687.20 2545.60 2368.80 2164.00 1898.80 1746.40 1639.60 1474.40 1265.00 1030.00 782.80 511.00 240.20 102.00 5.40 21.80 14.00 14.00 14.00 13.00 13.40 13.40 13.00 14.00 15.20 16.00 14.80 15.60 18.00 18.00 18.00 17.40 16.20 17.00 17.00 17.40 17.40 16.20 15.00 11.40 8.60 7.40 7.00 5.00 1.80 1.00 1.00 1.00 -6.00 -0.80 -4.40 8.80 52.40 161.00 416.00 713.60 946.40 1155.20 1306.00 1401.20 1470.80 1565.60 1697.60 1844.00 2001.80 2164.20 2332.20 2505.00 2677.00 2841.80 2989.40 3102.80 3182.80 3249.00 3294.20 3315.80 3330.80 3348.00 3366.00 3375.40 3384.20 3393.80 3403.40 3413.00 3425.80 3437.00 3378.20 3331.80 3408.00 3518.20 3540.60 3559.20 3578.00 3595.00
3401.00 3336.80 3301.20 3353.00 3411.00 3399.20 3347.40 3262.00 3144.40 3048.40 2946.40 2818.00 2672.40 2537.00 2384.60 2203.20 1908.40 1756.00 1631.00 1474.00 1320.20 1159.00 910.20 603.40 299.40 105.00 63.60 22.00 12.80 13.60 16.00 16.40 16.20 16.80 17.00 17.20 17.80 16.20 15.80 17.80 19.00 18.20 18.00 17.60 17.40 17.20 16.20 16.60 15.20 14.20 14.80 11.80 9.80 9.40 9.20 8.20 7.00 4.60 1.80 1.40 -4.60 1.00 -3.40 -9.20 12.80 72.00 213.00 445.40 692.40 959.60 1216.40 1352.20 1354.40 1422.80 1554.60 1698.20 1848.80 2008.60 2176.40 2351.00 2528.60 2700.80 2857.80 2965.60 3030.80 3082.00 3129.40 3154.20 3174.60 3199.40 3226.80 3243.00 3260.80 3282.20 3299.80 3318.80 3329.80 3307.00 3215.40 3191.20 3305.20 3457.00 3481.00 3468.00 3450.80 3484.40
3397.40 3331.60 3294.40 3339.40 3386.60 3378.80 3323.00 3258.40 3148.00 3055.60 2934.00 2788.00 2625.20 2488.40 2337.00 2160.00 1863.00 1728.60 1643.00 1535.00 1422.60 1284.60 1059.40 711.40 380.60 131.40 74.20 17.60 12.40 12.40 15.20 17.80 17.60 17.00 17.00 16.80 16.80 16.00 16.60 19.00 19.40 18.80 18.00 18.00 19.00 18.40 17.80 16.60 14.40 14.00 14.00 13.00 11.80 10.80 9.60 9.00 8.80 8.40 5.40 3.40 1.80 1.00 1.00 -0.80 1.20 30.40 79.40 210.60 456.80 761.60 1104.00 1285.20 1274.00 1306.60 1423.00 1550.20 1689.80 1844.80 2010.80 2185.60 2365.80 2544.80 2705.80 2812.80 2844.40 2886.00 2938.20 2971.80 3005.40 3038.20 3072.80 3101.00 3127.20 3158.20 3191.00 3214.00 3230.00 3226.60 3181.60 3183.80 3228.40 3314.60 3335.00 3324.40 3378.80 3454.80
3399.20 3331.20 3311.40 3308.00 3295.20 3308.00 3231.20 3155.20 3139.60 3052.80 2923.20 2755.80 2580.20 2429.00 2271.00 2090.40 1821.60 1703.60 1624.40 1524.40 1420.20 1298.80 1091.20 768.20 446.60 181.80 93.40 12.00 13.80 12.20 13.40 16.60 18.00 17.40 15.60 14.40 15.00 15.40 17.80 20.20 20.00 18.80 18.00 18.00 19.00 17.80 17.20 16.60 14.80 14.00 14.00 13.00 12.60 13.00 11.40 9.60 9.60 9.60 9.60 8.20 6.00 4.40 4.00 2.40 -7.20 -5.00 5.40 87.00 280.20 579.80 924.60 1157.80 1221.80 1265.20 1318.00 1400.20 1526.60 1677.00 1840.00 2009.20 2184.00 2361.80 2521.60 2611.80 2627.40 2649.60 2724.80 2772.80 2822.00 2862.00 2907.20 2946.20 2987.80 3030.40 3076.80 3107.80 3116.00 3135.40 3154.60 3149.00 3162.40 3183.80 3195.60 3275.80 3362.20 3447.60
3418.40 3333.00 3331.00 3370.00 3346.80 3315.60 3203.60 3123.60 3103.20 3045.60 2914.00 2741.80 2561.40 2404.20 2231.20 2036.00 1778.80 1668.80 1587.80 1482.40 1376.20 1253.60 1068.80 737.40 421.80 204.20 72.80 20.80 17.80 13.00 14.60 17.00 18.00 18.00 16.80 16.40 17.40 16.20 17.80 18.20 18.40 18.00 18.00 18.60 19.00 18.60 17.80 17.40 14.40 13.20 14.00 12.40 10.80 12.60 12.80 10.80 9.20 10.40 10.40 9.80 8.80 7.80 7.00 5.20 2.00 -1.40 -5.40 19.40 158.60 363.80 665.40 950.20 1163.00 1201.60 1193.20 1237.80 1360.60 1508.20 1666.80 1824.00 1984.00 2155.60 2313.60 2399.40 2390.20 2392.80 2502.00 2572.40 2625.60 2679.20 2730.80 2779.40 2834.60 2897.60 2971.60 3073.00 3063.60 3046.80 3064.80 3087.40 3091.20 3072.00 3111.20 3205.40 3287.40 3355.60
3493.00 3429.00 3412.60 3442.60 3458.20 3408.00 3318.80 3217.20 3141.00 3051.00 2915.00 2748.80 2574.00 2414.40 2235.60 2036.00 1755.60 1626.00 1528.80 1404.00 1283.00 1171.00 1009.00 688.60 341.00 143.00 53.80 30.60 24.00 19.60 17.00 17.00 17.40 18.00 17.20 18.00 16.60 15.00 15.60 16.00 17.00 18.00 17.60 17.60 18.00 19.00 19.00 18.60 15.60 14.00 14.00 12.40 10.40 12.20 13.00 11.00 10.20 10.60 9.40 9.00 9.00 9.00 8.60 7.40 5.40 2.00 -1.20 -2.80 55.40 169.40 373.00 766.00 1008.00 1094.40 1132.40 1079.00 1214.00 1359.20 1503.80 1642.20 1778.00 1932.00 2084.00 2212.40 2330.00 2350.00 2344.60 2378.20 2428.60 2485.40 2546.00 2607.20 2669.20 2732.20 2797.00 2852.00 2859.60 2870.00 2909.00 2966.20 2990.00 3028.20 3093.80 3138.80 3168.80 3223.00
3548.60 3494.20 3445.80 3448.20 3475.20 3443.20 3389.00 3284.80 3164.80 3050.20 2914.80 2757.20 2593.40 2439.00 2271.00 2075.80 1751.80 1606.60 1496.20 1355.40 1214.80 1088.80 915.20 598.40 259.00 88.60 44.80 28.00 21.40 17.80 16.80 15.60 16.80 17.80 16.80 16.40 12.80 12.80 14.00 13.80 14.60 15.40 15.20 14.60 16.60 19.00 18.80 17.80 16.60 15.40 16.20 14.80 13.60 13.60 14.00 12.20 10.80 10.60 9.40 8.20 9.00 10.20 9.80 8.60 6.60 3.40 1.00 -1.00 1.80 55.00 196.20 474.80 676.00 903.00 1036.60 1060.40 1147.60 1256.40 1370.20 1478.40 1578.60 1705.80 1838.00 1961.40 2067.40 2106.20 2119.40 2161.60 2221.00 2287.00 2359.40 2436.20 2504.20 2569.60 2626.20 2645.00 2634.80 2679.60 2751.00 2841.00 2883.20 2975.40 3054.60 3094.80 3130.80 3220.40
3514.60 3455.40 3455.40 3468.40 3475.80 3436.40 3382.20 3286.60 3161.40 3047.80 2923.20 2777.80 2621.80 2471.80 2296.60 2087.40 1756.00 1613.80 1507.00 1372.60 1226.80 1092.80 911.00 603.60 279.00 120.20 80.00 56.40 9.40 11.80 13.60 16.00 18.80 18.80 15.60 13.60 11.20 12.40 13.60 12.80 12.60 12.60 11.80 13.00 16.00 18.60 18.00 17.60 16.40 15.80 16.60 14.00 13.20 12.20 13.00 13.00 11.00 10.60 9.40 8.60 9.00 11.00 11.00 9.80 8.20 5.40 1.60 1.00 -5.00 3.00 77.40 182.00 280.40 609.80 894.20 982.00 1089.40 1174.40 1269.80 1348.40 1405.80 1482.00 1591.20 1707.00 1793.00 1831.00 1862.00 1917.00 1998.60 2094.60 2183.40 2272.00 2353.80 2427.60 2509.00 2594.60 2588.80 2588.00 2659.40 2725.40 2758.40 2900.60 2994.60 3054.80 3154.40 3264.40
3491.80 3453.60 3455.40 3468.60 3466.80 3432.20 3370.60 3275.80 3153.00 3046.00 2929.20 2793.00 2639.80 2492.20 2321.20 2112.00 1805.20 1678.00 1597.00 1465.40 1319.20 1199.00 1080.00 781.00 410.40 237.20 147.20 56.00 8.00 9.60 10.00 13.40 17.00 18.20 16.20 13.60 11.60 11.20 12.40 12.00 12.00 11.80 10.00 10.00 14.80 16.20 15.60 16.00 14.80 15.80 14.80 12.20 12.60 10.40 10.40 13.60 12.80 11.20 10.00 9.20 9.60 10.40 11.00 10.40 8.40 7.20 4.60 2.80 1.00 -3.00 1.80 31.80 107.00 276.80 533.20 731.20 929.00 1061.80 1161.20 1234.00 1242.00 1267.80 1355.40 1479.00 1547.60 1556.20 1571.00 1655.40 1789.80 1902.20 2016.60 2121.60 2210.80 2288.40 2359.00 2431.40 2472.20 2491.80 2539.00 2587.00 2619.20 2817.80 2954.80 3050.20 3162.60 3264.40
3470.60 3435.00 3454.60 3466.60 3453.00 3423.40 3366.20 3263.80 3133.80 3018.00 2895.20 2759.80 2613.20 2481.40 2333.80 2160.00 1873.60 1745.20 1665.20 1559.00 1446.40 1348.00 1201.40 898.60 526.40 290.80 102.60 21.20 8.60 9.00 10.00 13.40 15.40 16.60 17.00 15.60 15.20 12.60 11.40 12.00 12.00 11.20 7.60 7.60 11.20 11.00 12.40 14.40 12.80 14.00 14.00 11.40 12.20 9.60 9.60 13.20 13.00 11.60 10.80 10.00 10.00 10.80 11.00 10.40 9.00 8.00 7.20 4.40 1.80 1.00 -1.00 -6.60 5.00 86.40 157.40 283.20 491.80 729.40 998.20 1069.60 1049.60 1081.40 1173.40 1291.60 1350.20 1279.40 1249.40 1387.20 1567.00 1735.80 1871.80 1990.00 2085.80 2155.40 2212.00 2258.60 2279.40 2317.60 2384.80 2458.80 2527.20 2755.20 2894.20 3000.40 3112.60 3220.40
3461.00 3437.60 3472.40 3474.80 3448.00 3418.00 3373.80 3261.80 3098.00 2960.00 2824.00 2679.80 2535.80 2412.20 2280.20 2129.00 1867.20 1740.40 1652.80 1551.60 1452.00 1350.20 1176.60 799.20 429.20 240.00 71.80 17.40 9.00 9.00 9.00 12.80 16.40 17.00 17.00 18.00 17.60 14.80 11.80 11.00 11.00 10.40 6.80 5.60 7.60 7.00 10.40 15.60 13.20 10.40 12.00 12.60 11.00 11.00 11.00 11.00 12.20 12.60 11.40 10.20 10.00 10.00 9.60 9.00 9.00 9.00 7.80 6.60 4.80 1.60 1.00 -0.60 -3.80 -5.00 4.60 36.00 126.80 385.20 705.00 728.60 663.00 758.40 883.60 1052.80 1131.60 993.00 874.80 1139.60 1388.60 1593.00 1758.00 1893.80 1989.40 2047.60 2082.80 2133.00 2175.40 2250.60 2325.00 2397.80 2471.00 2595.20 2700.00 2858.40 3022.40 3146.00
3465.00 3442.20 3443.00 3426.00 3404.40 3405.20 3371.80 3249.00 3067.20 2916.00 2769.20 2617.20 2470.80 2342.40 2199.00 2039.60 1796.00 1692.20 1612.40 1509.80 1405.60 1298.20 1111.60 706.60 360.00 171.20 42.00 13.60 9.00 9.00 9.20 11.60 15.60 16.60 17.00 17.80 17.00 14.80 12.80 12.00 11.00 9.60 8.00 8.00 8.40 8.20 11.60 16.20 15.00 11.80 11.20 12.80 11.00 12.00 12.80 12.00 12.00 12.80 11.80 11.20 11.00 10.20 9.60 9.60 10.00 9.00 8.00 8.00 7.60 4.80 1.40 1.00 -0.80 -6.80 -8.80 -9.80 23.00 133.80 370.80 374.00 328.00 380.40 472.80 641.40 781.00 726.60 792.80 1024.40 1283.80 1510.20 1706.40 1849.60 1941.20 1985.20 1993.40 2050.80 2142.80 2234.40 2294.20 2332.20 2389.60 2547.80 2665.40 2837.60 2981.40 3076.20
3462.20 3446.00 3435.00 3422.40 3418.00 3421.20 3379.80 3240.20 3046.40 2890.40 2740.40 2585.60 2422.40 2286.20 2127.80 1954.00 1723.80 1632.60 1565.80 1453.40 1338.00 1221.20 1022.40 633.60 319.20 131.20 22.80 10.40 8.60 8.60 10.80 12.40 14.00 14.60 15.80 15.80 14.00 12.20 11.60 11.60 10.60 8.40 8.40 10.40 10.40 9.00 10.80 14.00 15.00 12.60 12.00 12.80 11.20 10.80 11.40 11.20 10.80 11.20 11.20 11.60 10.60 10.00 8.60 9.20 9.60 9.00 8.40 8.00 8.00 6.40 3.80 1.40 1.00 1.00 -2.60 -5.00 -4.80 18.20 126.20 179.40 228.40 270.00 283.20 395.40 415.40 428.60 656.00 948.40 1219.00 1479.00 1704.00 1866.00 1921.60 1961.80 1975.40 2037.20 2132.60 2221.20 2302.60 2352.60 2431.60 2597.80 2710.80 2809.20 2871.80 2929.40
3449.60 3439.60 3447.60 3462.60 3461.00 3447.60 3383.60 3233.60 3035.00 2878.20 2727.80 2567.60 2397.20 2240.00 2075.20 1888.60 1664.40 1588.60 1529.00 1400.60 1253.40 1107.80 882.60 543.00 261.00 94.00 16.60 8.60 6.80 9.20 13.20 12.40 12.80 13.40 13.40 12.80 12.40 12.00 11.60 11.00 9.40 8.60 9.80 11.00 10.20 9.00 10.40 11.60 12.80 11.60 10.80 10.00 9.80 9.40 9.60 9.40 9.20 8.80 9.40 9.80 8.80 8.20 8.00 8.20 7.80 8.40 8.40 7.60 7.40 5.40 3.80 2.80 1.60 1.00 1.00 1.00 -0.60 8.60 35.60 103.20 191.80 250.40 264.00 266.40 275.00 323.00 603.60 907.20 1196.00 1473.40 1738.20 1939.80 1953.40 1932.40 1967.20 2042.60 2139.20 2234.60 2324.80 2424.60 2515.00 2650.60 2731.80 2772.40 2793.60 2853.20
3426.40 3425.60 3440.40 3464.60 3465.80 3450.00 3378.80 3230.80 3033.00 2872.40 2717.80 2545.20 2361.60 2199.00 2025.00 1833.00 1631.80 1549.40 1444.60 1258.20 1084.60 949.40 736.60 439.40 173.80 50.80 15.40 7.20 4.80 7.60 10.80 8.80 10.80 12.80 12.20 10.40 9.60 10.80 11.20 11.20 9.00 9.20 10.20 11.00 10.20 9.80 9.20 10.00 10.00 8.80 8.40 8.20 8.20 8.20 8.20 8.20 8.00 8.00 8.00 7.60 7.20 6.20 5.40 4.20 3.20 3.20 3.00 2.40 2.60 3.00 5.40 5.20 2.40 1.00 1.00 1.00 -1.00 0.60 30.00 89.20 179.80 246.00 264.00 272.00 276.80 388.20 636.40 911.60 1189.00 1464.00 1744.20 1965.00 1949.40 1918.80 1958.80 2035.00 2128.20 2230.20 2326.40 2424.40 2524.60 2658.40 2754.20 2821.40 2871.40 2950.80
3374.00 3385.40 3377.40 3424.20 3434.60 3425.00 3357.20 3208.40 3009.20 2850.00 2694.00 2520.80 2334.40 2169.40 1993.80 1790.00 1553.80 1462.60 1313.80 1027.40 756.00 703.20 556.40 328.40 116.80 33.00 12.60 5.40 1.80 1.80 4.00 5.20 6.80 9.80 11.00 9.00 7.20 8.80 10.60 10.20 8.00 8.00 8.80 10.60 10.20 10.00 9.00 8.60 8.00 7.20 7.00 7.00 7.00 7.00 7.00 8.00 7.00 7.00 6.40 5.20 3.00 2.60 7.40 14.00 14.40 12.00 10.40 5.20 8.80 22.00 27.00 23.00 12.60 4.20 1.00 1.00 -1.00 -8.60 32.20 111.00 191.00 247.40 269.80 283.60 291.20 440.00 681.60 941.20 1192.00 1432.40 1663.00 1825.80 1855.40 1866.80 1916.00 2001.00 2091.80 2195.40 2299.80 2396.20 2497.00 2650.20 2771.80 2848.00 2919.60 3000.00
3301.20 3443.00 3467.60 3446.40 3426.40 3400.80 3321.20 3165.60 2969.40 2813.80 2662.80 2495.60 2317.60 2160.80 1987.20 1778.60 1503.00 1367.60 1152.20 831.20 543.20 495.80 406.80 244.80 100.20 22.40 10.40 6.00 2.20 1.00 1.00 -1.40 -0.20 3.80 6.60 8.60 6.40 7.40 9.40 9.80 9.00 8.00 8.40 9.60 8.80 8.80 7.80 7.00 6.20 6.20 7.00 7.00 6.40 5.40 5.00 5.80 6.20 6.40 5.20 6.80 9.60 59.40 94.60 143.60 153.60 152.80 121.80 95.00 108.20 175.40 218.00 207.60 144.20 90.80 55.20 45.00 18.80 15.80 74.80 152.80 212.40 253.20 276.80 286.80 290.80 510.00 754.80 1000.40 1217.80 1408.20 1592.00 1727.00 1730.20 1766.20 1828.60 1934.00 2051.00 2164.20 2270.60 2376.80 2495.60 2651.80 2726.60 2769.60 2835.40 2930.60
3311.20 3458.40 3503.60 3466.40 3436.80 3395.20 3302.40 3134.80 2942.20 2785.00 2640.80 2489.60 2323.60 2171.20 1995.20 1801.40 1535.20 1372.00 1029.40 669.60 430.00 376.20 334.20 258.00 130.80 32.40 13.20 6.40 2.20 1.00 -3.80 -5.00 -10.60 -3.40 1.80 5.40 8.00 9.00 9.00 8.80 8.60 7.60 7.60 8.00 8.00 8.00 7.80 7.40 7.40 7.00 7.00 6.20 5.40 1.80 11.00 38.20 53.40 77.80 81.40 81.80 100.00 213.00 309.80 359.60 387.80 390.00 344.20 291.80 303.00 381.00 452.80 450.20 375.80 300.80 256.00 224.20 149.80 146.20 162.00 209.60 250.00 279.20 303.60 310.80 449.20 661.60 893.60 1087.60 1273.60 1410.60 1537.20 1643.00 1592.60 1664.60 1773.40 1914.00 2046.60 2164.60 2273.20 2354.40 2441.20 2542.60 2577.40 2597.20 2674.60 2754.60
3365.20 3505.20 3533.20 3477.80 3440.20 3385.00 3291.80 3129.40 2913.40 2763.80 2640.20 2504.40 2347.60 2163.40 1990.60 1822.40 1584.60 1427.00 1047.60 627.60 407.80 361.80 322.20 285.00 163.00 56.40 20.20 12.40 14.80 15.60 10.60 8.40 4.40 -1.00 2.20 1.80 5.80 7.80 8.40 8.00 8.00 6.40 6.80 8.00 8.00 8.00 8.00 7.60 7.40 6.60 5.80 3.60 2.40 52.80 94.80 179.80 228.40 269.80 292.60 291.40 305.20 397.80 494.60 561.80 584.00 585.00 544.80 493.20 505.40 588.60 664.00 651.80 577.40 516.40 480.80 431.20 384.40 325.80 302.00 326.40 358.00 354.80 337.20 480.00 634.40 847.00 1068.00 1250.80 1327.00 1405.80 1469.40 1498.60 1478.20 1591.20 1766.20 1923.00 2043.20 2147.60 2244.20 2292.60 2321.20 2407.20 2449.60 2491.00 2516.20 2563.80
3418.40 3570.80 3574.80 3509.40 3444.00 3379.80 3287.40 3126.80 2924.00 2781.40 2660.20 2522.80 2340.40 2148.20 1984.60 1823.20 1575.20 1429.20 1068.60 644.80 421.40 390.40 356.60 327.20 233.80 113.60 69.20 84.40 124.00 141.20 131.40 104.20 69.60 36.60 15.40 4.20 3.00 6.20 7.60 7.20 7.20 6.80 6.40 7.60 8.00 8.00 8.00 7.40 6.20 4.60 1.80 1.20 39.20 128.00 268.20 380.20 430.00 471.00 495.00 494.20 492.40 551.40 661.80 740.20 763.80 761.00 718.20 670.20 703.80 801.40 874.00 847.40 774.60 740.60 700.80 636.40 585.00 528.20 499.20 498.40 513.20 506.00 529.60 654.80 826.60 1032.60 1266.00 1417.20 1428.60 1445.80 1471.80 1523.80 1589.40 1694.40 1835.00 1938.60 2011.20 2079.60 2163.00 2229.40 2275.60 2372.80 2454.40 2496.20 2490.80 2516.60
3580.00 3579.20 3552.80 3497.60 3433.60 3367.00 3274.20 3117.80 2916.80 2774.40 2643.00 2495.80 2304.20 2111.60 1964.40 1812.00 1546.20 1278.60 801.00 545.40 477.00 465.40 457.40 441.20 416.00 321.00 252.80 285.20 357.80 389.00 365.00 317.40 241.80 159.00 93.00 35.00 11.40 5.00 6.20 7.00 7.00 6.80 6.00 6.00 6.00 7.00 6.80 5.20 2.80 4.40 6.00 35.60 126.80 279.20 438.40 550.00 588.00 632.00 665.00 667.80 674.00 742.00 853.60 924.40 926.40 908.00 891.80 862.60 892.00 985.60 1042.00 1013.80 972.60 979.20 951.20 880.00 807.80 731.00 690.80 681.60 675.00 712.80 792.00 878.40 1002.40 1166.00 1414.20 1592.20 1487.80 1460.20 1514.00 1635.20 1755.60 1846.20 1926.20 1973.00 1997.60 2040.00 2129.40 2224.20 2295.00 2372.60 2437.80 2496.00 2533.60 2563.00
3584.60 3553.00 3518.20 3468.40 3413.20 3346.40 3249.00 3102.40 2896.00 2743.80 2594.80 2402.80 2185.20 2036.80 1923.20 1793.60 1545.00 1192.80 814.20 624.20 631.40 645.20 648.80 638.20 629.40 590.20 509.00 485.80 547.60 577.40 549.20 500.20 437.80 364.60 274.00 147.20 50.80 15.80 9.20 6.60 5.00 4.00 4.00 4.80 4.40 4.40 3.60 2.80 7.60 40.20 88.00 168.20 283.80 420.40 552.00 673.60 733.80 787.80 830.60 843.80 887.00 923.20 996.00 1051.60 1111.60 1043.80 1050.80 1030.40 1094.60 1164.60 1166.80 1135.40 1101.40 1154.80 1155.80 1110.20 1057.60 974.40 934.40 875.20 886.80 974.80 1057.60 1081.20 1136.60 1193.80 1216.60 1332.00 1386.60 1515.00 1643.80 1775.60 1920.60 2017.40 2052.20 2066.80 2067.20 2070.00 2139.60 2223.00 2318.00 2384.40 2412.40 2458.00 2514.40 2571.40
3493.00 3478.00 3453.60 3425.00 3375.00 3316.40 3219.80 3078.60 2905.00 2754.60 2595.60 2381.20 2130.40 1979.20 1878.80 1748.40 1530.20 1168.60 813.40 783.40 842.20 855.60 839.60 825.80 798.00 742.20 697.00 687.00 695.80 734.80 703.20 647.40 588.60 527.20 448.60 319.20 175.20 96.80 31.80 16.00 2.60 3.00 4.60 4.00 5.20 9.20 16.40 52.40 80.00 140.80 231.20 349.40 442.20 527.60 630.20 768.00 893.20 958.00 984.60 999.40 1033.00 1072.00 1141.20 1254.20 1455.00 1448.20 1476.00 1478.00 1539.80 1607.80 1579.60 1528.60 1442.60 1350.00 1318.20 1292.20 1254.20 1198.00 1228.40 1316.40 1258.00 1221.00 1234.40 1216.40 1234.40 1249.40 1291.40 1395.40 1533.40 1685.80 1800.60 1913.80 2051.40 2136.20 2162.60 2155.60 2144.40 2130.80 2173.20 2228.60 2303.60 2389.80 2401.00 2418.40 2445.60 2533.40
3367.00 3365.80 3385.80 3369.40 3333.00 3277.40 3184.40 3048.00 2880.00 2742.00 2593.80 2402.00 2158.00 1975.60 1823.00 1665.60 1414.80 1070.80 908.80 942.80 1062.40 1073.20 1056.80 1028.40 980.40 898.20 875.60 924.60 880.80 884.80 850.20 780.60 721.00 653.20 566.80 469.80 366.80 263.60 161.40 59.20 32.60 33.20 36.40 45.40 54.60 80.00 114.60 165.80 225.20 300.40 386.60 485.80 578.80 651.40 737.00 867.60 1005.40 1083.20 1071.40 1054.20 1069.60 1264.00 1390.80 1540.60 1676.20 1681.00 1686.00 1689.20 1773.20 1835.80 1772.20 1716.40 1659.60 1562.40 1519.20 1466.20 1425.20 1373.20 1350.20 1394.60 1331.20 1287.00 1313.80 1317.80 1342.60 1393.40 1475.60 1609.60 1733.80 1869.40 1969.80 2072.20 2158.00 2238.80 2261.60 2232.40 2218.80 2222.00 2267.00 2306.00 2333.60 2396.80 2407.60 2400.40 2402.00 2493.20
3354.60 3353.00 3355.80 3344.20 3298.60 3217.40 3112.00 2979.60 2823.00 2692.00 2544.60 2356.40 2129.20 1938.00 1762.80 1584.40 1335.60 1167.20 1063.60 1156.80 1288.00 1316.20 1306.20 1274.40 1225.60 1161.40 1137.20 1135.40 1117.00 1099.40 1100.60 959.40 903.40 820.00 684.80 600.60 528.40 449.60 337.40 220.00 154.20 141.60 148.00 163.00 190.20 223.20 266.00 313.80 368.40 439.20 523.80 607.20 716.00 813.40 899.40 998.00 1091.60 1167.60 1194.20 1306.60 1392.80 1586.40 1691.60 1744.40 1751.40 1799.80 1800.00 1788.80 1854.80 1882.40 1824.60 1768.20 1729.80 1712.40 1692.40 1636.20 1593.00 1540.80 1534.60 1542.20 1491.20 1482.80 1523.80 1525.80 1560.20 1628.20 1726.00 1834.00 1943.00 2021.80 2132.20 2227.20 2289.00 2335.20 2324.80 2290.80 2299.20 2334.80 2372.00 2411.00 2408.80 2414.80 2432.40 2434.80 2451.60 2524.40
3461.00 3457.20 3444.40 3376.00 3265.60 3129.00 2993.00 2864.20 2738.20 2626.20 2482.00 2281.60 2051.60 1869.20 1693.60 1518.00 1360.40 1285.60 1296.40 1411.20 1540.00 1596.40 1597.20 1551.00 1495.40 1482.00 1434.00 1369.60 1325.20 1328.00 1330.00 1232.40 1170.00 1066.20 869.00 750.00 672.00 587.60 497.60 403.60 338.00 315.40 310.60 321.40 343.80 375.00 411.60 450.40 491.20 554.00 647.00 744.40 866.40 994.80 1096.80 1139.00 1271.80 1397.80 1529.20 1716.40 1923.00 2004.20 2020.60 2034.40 2064.80 2022.00 1989.20 1975.60 1992.40 2002.80 1964.00 1928.00 1913.60 1908.80 1899.20 1867.00 1825.40 1776.60 1746.00 1728.80 1732.00 1774.20 1789.80 1800.00 1857.60 1926.00 1992.00 2052.80 2168.60 2262.60 2324.00 2377.80 2413.80 2444.40 2410.40 2370.00 2416.60 2457.80 2485.40 2511.40 2501.00 2443.20 2432.40 2473.80 2519.40 2591.00
3600.80 3573.40 3521.40 3410.80 3286.80 3182.20 3076.00 2926.40 2756.00 2616.20 2454.20 2251.60 2032.00 1848.20 1667.00 1517.40 1418.40 1407.40 1464.40 1594.20 1687.40 1734.80 1745.20 1696.00 1637.60 1626.40 1574.00 1518.60 1500.00 1496.40 1476.40 1414.80 1324.80 1230.80 1097.20 937.40 832.20 734.60 636.20 540.60 492.20 473.20 454.20 457.80 474.40 497.80 522.60 549.60 588.60 673.20 791.20 928.80 1042.60 1153.60 1244.40 1368.20 1528.80 1679.00 1844.60 2057.20 2335.00 2320.20 2202.20 2166.00 2154.40 2095.00 2044.00 2050.60 2094.20 2124.20 2086.40 2056.40 2049.40 2051.20 2035.00 1991.20 1920.20 1858.20 1822.20 1817.80 1880.80 1949.00 1949.40 1940.80 1969.00 2036.40 2137.80 2174.80 2249.60 2357.80 2416.40 2461.60 2491.60 2524.60 2514.00 2491.60 2530.00 2543.00 2557.40 2595.80 2605.20 2550.40 2530.20 2556.00 2598.20 2662.40
3680.40 3618.60 3547.40 3423.60 3304.80 3225.40 3132.20 2978.40 2799.20 2649.80 2477.40 2268.80 2039.20 1852.60 1687.80 1565.00 1507.40 1539.00 1639.40 1737.40 1792.20 1834.20 1844.80 1786.40 1724.40 1696.80 1651.00 1626.20 1625.20 1612.80 1590.00 1532.00 1469.60 1365.20 1258.40 1129.80 978.00 866.00 763.00 662.60 595.40 553.40 513.00 520.80 530.80 553.80 584.60 617.00 701.00 824.20 977.20 1082.40 1165.20 1246.60 1407.40 1612.20 1788.00 1940.00 2075.20 2222.20 2352.20 2333.00 2247.40 2239.20 2263.00 2251.00 2226.20 2239.40 2276.20 2291.40 2252.40 2224.40 2212.40 2217.80 2183.80 2106.80 1987.80 1892.20 1880.20 1914.00 2000.00 2061.00 2065.40 2054.00 2059.60 2119.20 2219.60 2254.40 2306.60 2389.40 2462.80 2508.00 2549.20 2602.40 2611.80 2593.20 2618.20 2632.00 2631.60 2667.40 2674.00 2645.80 2619.60 2634.60 2672.80 2729.20
3686.40 3605.20 3528.00 3409.60 3280.40 3191.80 3079.40 2941.40 2825.60 2683.40 2515.80 2306.00 2078.80 1897.00 1736.60 1631.00 1642.80 1708.00 1795.00 1881.00 1918.20 1945.80 1953.40 1872.80 1798.80 1756.20 1720.80 1719.20 1726.20 1717.00 1694.40 1649.40 1593.80 1522.40 1388.20 1235.40 1121.00 1006.60 900.40 778.40 693.20 627.40 577.80 539.40 542.60 560.40 604.40 683.40 788.40 941.20 1084.60 1157.40 1173.40 1307.80 1643.00 1885.80 2039.00 2161.00 2225.80 2324.80 2421.20 2379.40 2298.20 2342.40 2397.20 2432.80 2436.80 2452.60 2485.00 2493.80 2456.40 2432.60 2415.20 2382.80 2344.80 2250.80 2115.00 2039.80 2038.60 2074.60 2132.60 2152.60 2150.60 2157.60 2188.60 2238.60 2301.60 2326.40 2337.80 2403.80 2482.00 2540.00 2591.40 2657.40 2706.00 2701.80 2708.80 2714.40 2708.60 2731.80 2723.20 2674.40 2682.00 2702.00 2740.60 2791.60
3672.40 3592.80 3519.60 3393.20 3230.60 3084.60 2931.00 2867.00 2805.80 2697.60 2558.20 2373.00 2168.40 1993.80 1831.40 1715.40 1789.00 1880.00 1954.60 2022.20 2059.00 2068.60 2062.60 1965.80 1865.40 1814.20 1792.40 1795.60 1813.00 1811.00 1794.40 1752.80 1705.80 1656.00 1550.40 1395.00 1271.00 1218.20 1120.60 925.20 773.60 713.60 641.80 582.60 545.00 549.60 600.80 694.60 815.00 950.00 1141.40 1269.40 1379.40 1644.00 1999.40 2188.20 2277.80 2312.20 2339.20 2388.80 2447.60 2417.00 2401.80 2472.80 2516.00 2558.00 2580.20 2609.80 2644.20 2645.00 2604.00 2577.00 2546.00 2508.40 2465.20 2408.80 2342.60 2288.40 2262.60 2258.20 2266.60 2242.00 2210.20 2215.60 2275.00 2357.80 2397.80 2394.40 2377.40 2372.60 2462.00 2553.20 2614.20 2698.20 2762.80 2784.60 2794.40 2793.60 2779.20 2764.60 2751.20 2726.40 2742.40 2767.60 2803.60 2849.60
3682.00 3626.20 3555.40 3412.00 3211.20 3035.00 2899.80 2834.20 2775.40 2701.80 2598.00 2442.20 2257.00 2097.40 1947.40 1839.00 1945.80 2028.60 2084.40 2149.20 2200.00 2208.60 2215.40 2096.00 1935.20 1875.00 1866.00 1864.00 1877.20 1877.60 1869.00 1827.00 1786.60 1747.00 1679.40 1566.00 1458.40 1371.20 1264.40 1062.80 844.00 756.20 699.40 623.80 566.20 551.00 601.80 697.80 763.20 996.40 1301.00 1515.80 1714.60 2004.40 2386.80 2453.00 2405.40 2367.00 2383.20 2409.20 2461.00 2490.00 2513.20 2567.20 2601.60 2636.00 2671.00 2713.00 2743.60 2736.40 2689.00 2653.80 2625.40 2589.40 2558.60 2547.00 2517.20 2460.40 2417.20 2392.40 2365.00 2313.60 2242.80 2217.60 2307.60 2426.00 2473.20 2456.80 2410.60 2373.80 2462.00 2568.60 2641.00 2721.40 2797.80 2840.00 2868.80 2868.40 2839.00 2812.60 2802.00 2797.40 2809.00 2830.60 2862.20 2903.00
3700.60 3661.40 3598.40 3476.20 3293.80 3149.40 3050.40 2961.60 2858.40 2785.20 2675.00 2509.20 2337.20 2201.80 2074.60 2026.00 2155.00 2231.40 2303.80 2382.60 2420.60 2400.80 2384.80 2264.80 2097.20 2017.00 1963.60 1945.40 1952.00 1946.80 1937.20 1884.60 1852.20 1813.40 1757.20 1697.00 1626.20 1512.60 1348.40 1189.00 1037.80 893.20 764.80 633.40 527.80 511.00 613.20 758.80 851.20 1176.00 1576.60 1771.80 1916.80 2124.80 2363.20 2415.60 2411.80 2389.00 2397.20 2442.60 2523.40 2582.80 2614.40 2638.60 2659.60 2705.80 2748.20 2789.20 2817.40 2814.60 2776.00 2732.00 2693.00 2660.40 2645.60 2645.60 2603.20 2556.80 2521.80 2483.40 2421.00 2352.60 2273.40 2276.40 2366.40 2465.80 2524.20 2521.20 2485.20 2460.60 2538.00 2635.40 2699.00 2756.00 2822.60 2876.20 2900.80 2903.20 2886.40 2874.00 2866.00 2864.20 2872.60 2888.20 2915.80 2950.40
3715.80 3683.00 3630.80 3549.00 3427.00 3339.80 3266.60 3178.20 3015.60 2873.60 2733.40 2561.60 2422.00 2311.00 2234.20 2249.20 2398.60 2492.00 2583.40 2655.00 2650.20 2604.80 2561.60 2445.20 2319.60 2212.60 2128.80 2098.80 2097.60 2086.40 2048.40 1960.20 1921.00 1879.00 1838.00 1805.40 1740.20 1625.40 1460.40 1234.20 1089.00 993.60 864.00 639.80 423.80 402.20 486.80 607.20 812.40 1329.60 1903.00 1961.00 2034.40 2145.60 2316.80 2398.80 2434.60 2482.20 2491.80 2538.40 2604.60 2656.00 2714.80 2734.60 2748.80 2783.40 2832.00 2870.40 2894.20 2895.80 2862.80 2812.20 2775.00 2752.00 2752.40 2742.40 2699.00 2653.60 2620.60 2570.20 2498.20 2419.40 2354.60 2385.20 2445.20 2493.00 2564.40 2588.80 2598.20 2589.20 2632.40 2706.80 2765.60 2802.80 2857.60 2902.20 2912.40 2920.80 2928.60 2926.00 2924.40 2925.00 2930.20 2942.60 2963.40 2994.00
3739.80 3713.80 3695.00 3639.00 3594.40 3543.80 3487.40 3332.80 3090.60 2902.20 2732.20 2606.00 2494.00 2467.00 2445.80 2539.60 2698.20 2796.20 2874.80 2907.00 2888.40 2845.40 2786.60 2694.00 2562.80 2456.80 2395.40 2385.60 2385.00 2357.40 2271.00 2104.60 2034.40 1993.60 1958.40 1912.80 1842.00 1752.40 1636.00 1413.00 1154.40 1045.20 891.00 643.00 438.60 354.80 372.80 429.60 508.20 1173.00 1893.40 1875.20 1899.00 2010.00 2226.00 2397.00 2493.80 2589.80 2637.60 2690.20 2734.20 2767.80 2816.20 2872.00 2882.00 2885.40 2918.00 2960.00 2993.00 2994.20 2960.00 2915.60 2895.60 2887.40 2886.80 2873.20 2845.00 2801.80 2754.40 2726.20 2677.60 2609.80 2549.60 2531.00 2549.80 2516.40 2535.00 2618.80 2655.00 2675.00 2684.00 2730.00 2789.60 2835.80 2872.00 2911.20 2918.20 2945.00 2961.60 2975.80 2978.40 2979.80 2983.00 2991.40 3008.60 3033.60
3761.40 3740.60 3730.20 3712.20 3687.00 3653.40 3580.40 3408.00 3158.20 2915.00 2737.00 2641.60 2580.60 2578.60 2696.20 2828.40 2981.00 3043.40 3098.00 3099.60 3066.40 3026.60 2995.80 2905.20 2780.20 2697.60 2657.00 2645.80 2630.80 2595.80 2508.20 2291.00 2183.80 2122.80 2063.20 1999.20 1924.00 1874.00 1809.60 1630.00 1300.40 1071.40 884.20 699.40 567.60 459.20 392.00 337.60 488.20 1055.00 1423.80 1632.00 1760.20 1918.00 2156.00 2399.00 2528.80 2619.20 2696.00 2771.60 2841.80 2879.00 2918.60 2964.20 2988.80 2982.20 2996.40 3042.00 3076.60 3080.20 3046.80 3008.40 3003.60 3005.00 2999.80 2982.80 2955.80 2909.40 2870.60 2860.00 2836.80 2774.20 2704.40 2647.60 2605.80 2554.40 2503.60 2599.20 2677.80 2699.80 2695.20 2728.40 2793.20 2839.60 2858.80 2907.20 2938.00 2975.00 3003.20 3022.80 3030.40 3031.60 3033.40 3037.00 3050.60 3072.40
3773.00 3761.00 3747.80 3726.80 3699.60 3664.00 3589.60 3413.60 3160.40 2960.40 2829.00 2751.40 2708.60 2733.20 2866.80 3044.00 3168.80 3213.20 3223.40 3187.40 3136.00 3106.40 3104.80 3055.60 2954.80 2885.00 2842.80 2814.00 2787.00 2751.40 2685.00 2495.80 2372.60 2279.00 2163.80 2049.00 1984.20 1949.80 1889.80 1705.00 1383.00 1160.40 978.00 791.40 663.00 597.00 480.40 503.20 692.20 1037.80 1323.00 1582.60 1765.00 1903.60 2101.60 2344.00 2461.40 2527.40 2618.60 2739.00 2854.00 2916.60 2964.60 3015.60 3042.40 3051.00 3054.60 3089.80 3127.60 3135.20 3104.00 3071.60 3075.20 3075.20 3067.60 3043.00 3004.00 2960.00 2925.80 2903.80 2884.00 2831.20 2759.60 2699.00 2655.00 2612.00 2585.00 2635.00 2688.40 2710.80 2718.00 2751.60 2803.60 2849.80 2882.20 2928.00 2974.40 3016.00 3049.00 3074.20 3082.00 3082.00 3081.20 3081.80 3093.40 3113.00
3789.60 3772.20 3750.40 3731.80 3704.00 3659.00 3556.60 3354.20 3128.80 3005.60 2955.00 2919.40 2907.40 2951.40 3045.40 3174.20 3301.00 3322.60 3288.20 3241.60 3202.60 3179.80 3188.60 3174.20 3112.60 3051.80 2995.60 2952.80 2921.40 2889.80 2823.60 2665.60 2558.00 2447.60 2267.00 2120.00 2055.20 2013.60 1929.80 1734.20 1504.00 1307.00 1117.80 943.60 800.00 664.80 526.80 648.20 849.00 1071.80 1328.20 1563.40 1753.20 1888.20 2042.60 2246.00 2342.60 2423.80 2541.80 2670.60 2811.60 2886.20 2961.80 3043.40 3085.20 3101.00 3096.00 3118.00 3161.20 3180.40 3155.40 3127.00 3136.20 3144.20 3137.40 3110.40 3067.00 3011.00 2936.40 2922.20 2906.00 2860.40 2804.00 2752.80 2714.40 2685.80 2672.40 2695.60 2721.40 2736.00 2749.00 2780.40 2824.00 2869.00 2911.60 2961.20 3018.40 3063.60 3097.80 3120.00 3129.60 3131.60 3131.60 3132.20 3144.40 3165.20
3802.40 3779.00 3750.60 3724.40 3697.00 3655.80 3551.60 3330.20 3132.00 3099.60 3078.60 3077.80 3097.80 3142.20 3213.00 3273.40 3389.40 3379.40 3335.60 3301.60 3269.40 3254.80 3263.80 3263.80 3223.00 3162.20 3099.20 3053.20 3025.80 2999.80 2942.00 2808.40 2708.40 2584.80 2409.20 2256.00 2157.20 2068.40 1979.00 1817.40 1627.20 1444.60 1239.00 1065.60 906.40 748.00 607.00 749.00 962.60 1134.20 1322.20 1530.80 1718.00 1842.20 1979.00 2135.20 2240.20 2343.40 2476.20 2626.20 2760.00 2834.20 2923.80 3064.60 3116.80 3141.40 3139.40 3157.00 3196.40 3222.80 3216.60 3187.40 3190.20 3206.40 3207.40 3188.40 3141.00 3061.40 2949.20 2950.60 2939.20 2900.00 2850.80 2808.80 2778.20 2757.00 2748.40 2754.80 2769.20 2774.00 2779.40 2809.00 2847.60 2890.20 2935.00 2990.00 3066.00 3122.80 3148.80 3162.20 3172.40 3178.60 3182.00 3185.80 3201.00 3229.20
3809.60 3782.80 3750.40 3722.00 3700.00 3664.80 3578.00 3396.20 3219.60 3191.60 3193.20 3223.00 3248.00 3274.20 3347.00 3389.80 3443.40 3419.00 3386.60 3355.00 3326.40 3314.80 3325.60 3318.20 3271.40 3213.20 3161.20 3124.00 3104.80 3085.60 3044.00 2929.00 2829.20 2715.00 2563.00 2402.40 2242.40 2139.20 2055.20 1891.20 1705.20 1534.60 1323.60 1110.60 943.00 788.80 656.80 752.00 898.40 1064.00 1251.40 1411.40 1566.20 1741.40 1894.60 2042.80 2156.20 2258.60 2402.40 2546.60 2665.80 2749.20 2862.80 3038.20 3136.60 3177.40 3190.40 3208.00 3240.60 3260.80 3265.80 3237.60 3229.60 3259.80 3269.40 3257.40 3197.20 3149.20 3085.40 3054.60 3010.60 2953.60 2907.80 2867.60 2847.80 2830.20 2816.40 2821.20 2826.20 2821.40 2813.60 2843.80 2878.20 2914.40 2954.40 3005.00 3105.60 3186.00 3190.80 3194.00 3212.60 3211.20 3206.00 3220.00 3269.40 3302.40
3816.00 3778.80 3741.80 3717.80 3698.80 3673.20 3614.20 3473.80 3313.60 3270.80 3288.40 3340.40 3368.40 3362.60 3419.00 3489.00 3481.40 3454.20 3431.80 3402.60 3372.80 3361.60 3370.80 3350.20 3292.20 3242.40 3204.60 3178.00 3163.20 3152.00 3117.60 3011.40 2914.00 2806.60 2682.20 2515.20 2347.60 2231.60 2127.60 1890.80 1710.80 1559.60 1349.60 1145.00 963.80 810.40 696.80 662.00 781.60 939.80 1132.60 1277.80 1396.60 1558.60 1785.20 1981.60 2085.80 2183.40 2328.40 2464.80 2565.00 2654.40 2813.60 3017.00 3137.40 3203.40 3228.40 3247.40 3271.40 3290.40 3298.20 3271.60 3257.60 3288.60 3311.00 3303.80 3257.80 3223.80 3214.80 3146.60 3066.60 2996.80 2973.60 2940.40 2924.40 2913.40 2890.00 2888.60 2888.00 2886.20 2875.60 2900.60 2930.40 2954.40 2980.80 2995.80 3124.40 3220.00 3246.80 3258.20 3280.60 3286.40 3282.20 3308.60 3353.80 3388.00
